# .PCD v0.7 - Point Cloud Data file format
VERSION 0.7
FIELDS x y z intensity
SIZE 4 4 4 4
TYPE F F F F
COUNT 1 1 1 1
WIDTH 372
HEIGHT 1
VIEWPOINT 0 0 0 1 0 0 0
POINTS 372
DATA ascii
-0.44516125 -0.58064514 9.6774187 0.10333334
-0.42580643 -0.58064514 9.6774187 0.10333334
0.032214765 -0.24161072 4.0268455 0.24833335
0.040268455 -0.24161072 4.0268455 0.24833335
0.048322145 -0.24161072 4.0268455 0.24833335
0.056375835 -0.24161072 4.0268455 0.24833335
-0.44516125 -0.56129026 9.6774187 0.10333334
0.39792746 -0.36062175 6.2176166 0.16083333
0.41036269 -0.36062175 6.2176166 0.16083333
0.42279792 -0.36062175 6.2176166 0.16083333
0.66766918 -0.52330828 9.0225563 0.11083333
0.6857143 -0.52330828 9.0225563 0.11083333
-0.44516125 -0.54193544 9.6774187 0.10333334
0.64962405 -0.50526315 9.0225563 0.11083333
0.66766918 -0.50526315 9.0225563 0.11083333
0.6857143 -0.50526315 9.0225563 0.11083333
-0.44516125 -0.52258062 9.6774187 0.10333334
-0.44516125 -0.50322574 9.6774187 0.10333334
0.0080536911 -0.20939596 4.0268455 0.24833335
0.016107382 -0.20939596 4.0268455 0.24833335
0.024161072 -0.20939596 4.0268455 0.24833335
0.039344262 -0.25573769 4.9180326 0.20333333
0.31836736 -0.31836736 6.1224494 0.16333333
0.39792746 -0.32331607 6.2176166 0.16083333
-0.4645161 -0.48387092 9.6774187 0.10333334
0.0080536911 -0.20134227 4.0268455 0.24833335
0.11803278 -0.24590163 4.9180326 0.20333333
0.28163266 -0.30612248 6.1224494 0.16333333
0.29387757 -0.30612248 6.1224494 0.16333333
0.30612248 -0.30612248 6.1224494 0.16333333
-0.2238342 -0.29844558 6.2176166 0.16083333
-0.21139896 -0.29844558 6.2176166 0.16083333
0.049180325 -0.23606557 4.9180326 0.20333333
0.059016392 -0.23606557 4.9180326 0.20333333
0.068852454 -0.23606557 4.9180326 0.20333333
0.078688525 -0.23606557 4.9180326 0.20333333
0.30612248 -0.29387757 6.1224494 0.16333333
0.31836736 -0.29387757 6.1224494 0.16333333
0.58807951 -0.38145697 7.9470201 0.12583333
0.60397351 -0.38145697 7.9470201 0.12583333
0.61986756 -0.38145697 7.9470201 0.12583333
0.63576162 -0.38145697 7.9470201 0.12583333
0.65165567 -0.38145697 7.9470201 0.12583333
-0.81322318 -0.45619836 9.9173555 0.10083333
-0.48387092 -0.44516125 9.6774187 0.10333334
-0.23626943 -0.28601035 6.2176166 0.16083333
-0.2238342 -0.28601035 6.2176166 0.16083333
0.33061227 -0.28163266 6.1224494 0.16333333
0.34285715 -0.28163266 6.1224494 0.16333333
-0.83305788 -0.43636364 9.9173555 0.10083333
-0.81322318 -0.43636364 9.9173555 0.10083333
-0.23626943 -0.27357513 6.2176166 0.16083333
0.078688525 -0.21639344 4.9180326 0.20333333
0.45658538 -0.25756097 5.8536587 0.17083333
-0.83305788 -0.41652894 9.9173555 0.10083333
-0.29752067 -0.41652894 9.9173555 0.10083333
0.44487807 -0.24585366 5.8536587 0.17083333
-0.85289258 -0.39669421 9.9173555 0.10083333
-0.83305788 -0.39669421 9.9173555 0.10083333
-0.31735536 -0.39669421 9.9173555 0.10083333
-0.29752067 -0.39669421 9.9173555 0.10083333
0.44487807 -0.22243904 5.8536587 0.17083333
0.46829268 -0.22243904 5.8536587 0.17083333
0.48000002 -0.22243904 5.8536587 0.17083333
-0.54803145 -0.34015745 9.4488182 0.10583334
0.034615383 -0.2076923 5.7692304 0.17333335
0.046153843 -0.2076923 5.7692304 0.17333335
0.3353712 -0.18864629 5.2401748 0.19083333
0.35633188 -0.18864629 5.2401748 0.19083333
0.36681223 -0.18864629 5.2401748 0.19083333
-0.54803145 -0.32125983 9.4488182 0.10583334
-0.11779141 -0.25030673 7.3619628 0.13583334
-0.10306748 -0.25030673 7.3619628 0.13583334
-0.088343553 -0.25030673 7.3619628 0.13583334
-0.073619626 -0.25030673 7.3619628 0.13583334
0.31441048 -0.17816594 5.2401748 0.19083333
0.83305788 -0.33719009 9.9173555 0.10083333
0 -0.18461537 5.7692304 0.17333335
0.011538461 -0.18461537 5.7692304 0.17333335
0.023076922 -0.18461537 5.7692304 0.17333335
0.31441048 -0.1676856 5.2401748 0.19083333
0.32489082 -0.1676856 5.2401748 0.19083333
0.35633188 -0.1676856 5.2401748 0.19083333
0.85289258 -0.31735536 9.9173555 0.10083333
0.85289258 -0.29752067 9.9173555 0.10083333
-0.2887218 -0.25263157 9.0225563 0.11083333
0.54545456 -0.21818183 7.7922082 0.12833333
0.87272727 -0.27768594 9.9173555 0.10083333
0.89256197 -0.27768594 9.9173555 0.10083333
0.74701989 -0.22251657 7.9470201 0.12583333
-0.831496 -0.24566928 9.4488182 0.10583334
0.41652894 -0.25785124 9.9173555 0.10083333
0.43636364 -0.25785124 9.9173555 0.10083333
0.45619836 -0.25785124 9.9173555 0.10083333
0.56103897 -0.20259741 7.7922082 0.12833333
0.71523178 -0.20662253 7.9470201 0.12583333
-0.831496 -0.22677164 9.4488182 0.10583334
-0.64864862 -0.19459458 8.1081076 0.12333334
-0.6324324 -0.19459458 8.1081076 0.12333334
-0.61621618 -0.19459458 8.1081076 0.12333334
-0.58378375 -0.19459458 8.1081076 0.12333334
0.43636364 -0.23801653 9.9173555 0.10083333
0.73112583 -0.19072849 7.9470201 0.12583333
0.74701989 -0.19072849 7.9470201 0.12583333
-0.86929125 -0.207874 9.4488182 0.10583334
-0.85039365 -0.207874 9.4488182 0.10583334
-0.54715025 -0.13678756 6.2176166 0.16083333
-0.81259835 -0.207874 9.4488182 0.10583334
0.56103897 -0.17142858 7.7922082 0.12833333
-0.61621618 -0.16216215 8.1081076 0.12333334
-0.23801653 -0.19834711 9.9173555 0.10083333
-0.21818182 -0.19834711 9.9173555 0.10083333
0.49870133 -0.15584417 7.7922082 0.12833333
0.52987015 -0.15584417 7.7922082 0.12833333
0.54545456 -0.15584417 7.7922082 0.12833333
0.56103897 -0.15584417 7.7922082 0.12833333
-0.534715 -0.1119171 6.2176166 0.16083333
-0.5222798 -0.1119171 6.2176166 0.16083333
0.01983471 -0.17851239 9.9173555 0.10083333
0.39669421 -0.17851239 9.9173555 0.10083333
-0.54715025 -0.099481866 6.2176166 0.16083333
-0.534715 -0.099481866 6.2176166 0.16083333
-0.51570249 -0.15867768 9.9173555 0.10083333
-0.49586779 -0.15867768 9.9173555 0.10083333
-0.47603306 -0.15867768 9.9173555 0.10083333
-0.45619836 -0.15867768 9.9173555 0.10083333
0.01983471 -0.15867768 9.9173555 0.10083333
0.22677164 -0.15118109 9.4488182 0.10583334
0.41652894 -0.15867768 9.9173555 0.10083333
0.52987015 -0.12467533 7.7922082 0.12833333
0.81203008 -0.1443609 9.0225563 0.11083333
0.8300752 -0.1443609 9.0225563 0.11083333
-0.85161287 -0.13548386 9.6774187 0.10333334
-0.71404958 -0.13884297 9.9173555 0.10083333
-0.49586779 -0.13884297 9.9173555 0.10083333
-0.27096772 -0.13548386 9.6774187 0.10333334
-0.25161287 -0.13548386 9.6774187 0.10333334
0 -0.13884297 9.9173555 0.10083333
0.18897636 -0.13228345 9.4488182 0.10583334
0.207874 -0.13228345 9.4488182 0.10583334
0.22677164 -0.13228345 9.4488182 0.10583334
0.41652894 -0.13884297 9.9173555 0.10083333
0.8300752 -0.12631579 9.0225563 0.11083333
-0.87096769 -0.11612903 9.6774187 0.10333334
-0.85161287 -0.11612903 9.6774187 0.10333334
-0.83225799 -0.11612903 9.6774187 0.10333334
-0.71404958 -0.11900827 9.9173555 0.10083333
-0.69421488 -0.11900827 9.9173555 0.10083333
-0.01983471 -0.11900827 9.9173555 0.10083333
0.79398495 -0.10827067 9.0225563 0.11083333
0.81203008 -0.10827067 9.0225563 0.11083333
0.8300752 -0.10827067 9.0225563 0.11083333
0.84812027 -0.10827067 9.0225563 0.11083333
-0.73388433 -0.099173553 9.9173555 0.10083333
-0.71404958 -0.099173553 9.9173555 0.10083333
-0.67438018 -0.099173553 9.9173555 0.10083333
-0.01983471 -0.099173553 9.9173555 0.10083333
0.49586779 -0.099173553 9.9173555 0.10083333
0.51570249 -0.099173553 9.9173555 0.10083333
0.53553718 -0.099173553 9.9173555 0.10083333
0.55537188 -0.099173553 9.9173555 0.10083333
0.52987015 -0.077922083 7.7922082 0.12833333
0.54545456 -0.077922083 7.7922082 0.12833333
0.56103897 -0.077922083 7.7922082 0.12833333
-0.73388433 -0.079338841 9.9173555 0.10083333
0 -0.079338841 9.9173555 0.10083333
0.49586779 -0.079338841 9.9173555 0.10083333
0.57520664 -0.079338841 9.9173555 0.10083333
0.56103897 -0.062337667 7.7922082 0.12833333
0.57662338 -0.062337667 7.7922082 0.12833333
-0.77355373 -0.059504133 9.9173555 0.10083333
-0.75371903 -0.059504133 9.9173555 0.10083333
-0.46153846 -0.055384614 9.2307692 0.10833333
0.19354838 -0.058064513 9.6774187 0.10333334
0.21290322 -0.058064513 9.6774187 0.10333334
-1.0718446 -0.04660194 11.650485 0.085833333
-0.77355373 -0.039669421 9.9173555 0.10083333
-0.75371903 -0.039669421 9.9173555 0.10083333
-0.46153846 -0.036923077 9.2307692 0.10833333
-0.45354328 -0.037795272 9.4488182 0.10583334
-0.415748 -0.037795272 9.4488182 0.10583334
0.21290322 -0.038709674 9.6774187 0.10333334
0.55537188 -0.039669421 9.9173555 0.10083333
0.57520664 -0.039669421 9.9173555 0.10083333
0.57662338 -0.031168833 7.7922082 0.12833333
-0.46153846 -0.018461538 9.2307692 0.10833333
-0.44307691 -0.018461538 9.2307692 0.10833333
-0.415748 -0.018897636 9.4488182 0.10583334
0.21290322 -0.019354837 9.6774187 0.10333334
0.59504133 -0.01983471 9.9173555 0.10083333
0.29798657 -0.0080536911 4.0268455 0.24833335
0.30604026 -0.0080536911 4.0268455 0.24833335
0.39327729 -0.010084033 5.0420165 0.19833334
0.40336132 -0.010084033 5.0420165 0.19833334
0.33020133 -0.0080536911 4.0268455 0.24833335
0.42352939 -0.010084033 5.0420165 0.19833334
0.52277225 -0.011881188 5.9405937 0.16833334
0.5465346 -0.011881188 5.9405937 0.16833334
-1.0188679 0 11.320754 0.088333338
-0.46153846 0 9.2307692 0.10833333
-0.44307691 0 9.2307692 0.10833333
0.18897636 0 9.4488182 0.10583334
0.25161287 0 9.6774187 0.10333334
0.20502511 0.0120603 6.0301504 0.16583334
-0.25785124 0.039669421 9.9173555 0.10083333
0.22914572 0.024120601 6.0301504 0.16583334
0.28993288 0.016107382 4.0268455 0.24833335
0.37310922 0.020168066 5.0420165 0.19833334
0.38319325 0.020168066 5.0420165 0.19833334
0.40336132 0.020168066 5.0420165 0.19833334
-0.29268295 0.035121951 5.8536587 0.17083333
0.11900827 0.059504133 9.9173555 0.10083333
0.13884297 0.059504133 9.9173555 0.10083333
0.54715025 0.037305698 6.2176166 0.16083333
-0.30439025 0.046829268 5.8536587 0.17083333
0.079338841 0.079338841 9.9173555 0.10083333
0.099173553 0.079338841 9.9173555 0.10083333
0.11900827 0.079338841 9.9173555 0.10083333
0.13884297 0.079338841 9.9173555 0.10083333
0.20502511 0.048241202 6.0301504 0.16583334
0.21708542 0.048241202 6.0301504 0.16583334
0.22914572 0.048241202 6.0301504 0.16583334
0.24120602 0.048241202 6.0301504 0.16583334
0.2532663 0.048241202 6.0301504 0.16583334
-0.69677413 0.096774191 9.6774187 0.10333334
-0.30439025 0.058536585 5.8536587 0.17083333
-0.29268295 0.058536585 5.8536587 0.17083333
-0.29844558 0.062176164 6.2176166 0.16083333
-0.28601035 0.062176164 6.2176166 0.16083333
-0.25756097 0.058536585 5.8536587 0.17083333
-0.23886254 0.056872033 5.6872034 0.17583334
0.079338841 0.099173553 9.9173555 0.10083333
0.15678391 0.060301505 6.0301504 0.16583334
0.29798657 0.040268455 4.0268455 0.24833335
0.30604026 0.040268455 4.0268455 0.24833335
-0.72972965 0.097297288 8.1081076 0.12333334
-0.71351349 0.097297288 8.1081076 0.12333334
-0.69729728 0.097297288 8.1081076 0.12333334
-0.69677413 0.11612903 9.6774187 0.10333334
-0.25756097 0.070243903 5.8536587 0.17083333
0.50984454 0.074611396 6.2176166 0.16083333
0.534715 0.074611396 6.2176166 0.16083333
0.54715025 0.074611396 6.2176166 0.16083333
-0.055384614 0.12923077 9.2307692 0.10833333
0.54715025 0.087046631 6.2176166 0.16083333
-0.69729728 0.12972972 8.1081076 0.12333334
-0.68108106 0.12972972 8.1081076 0.12333334
-0.66486484 0.12972972 8.1081076 0.12333334
-0.29844558 0.099481866 6.2176166 0.16083333
-0.28601035 0.099481866 6.2176166 0.16083333
0.45619836 0.15867768 9.9173555 0.10083333
0.47603306 0.15867768 9.9173555 0.10083333
-0.68108106 0.14594594 8.1081076 0.12333334
0.29752067 0.17851239 9.9173555 0.10083333
0.31735536 0.17851239 9.9173555 0.10083333
0.45619836 0.17851239 9.9173555 0.10083333
0.47603306 0.17851239 9.9173555 0.10083333
0.66754967 0.14304636 7.9470201 0.12583333
0.55958551 0.1119171 6.2176166 0.16083333
0.29752067 0.19834711 9.9173555 0.10083333
0.019354837 0.21290322 9.6774187 0.10333334
0.43636364 0.21818182 9.9173555 0.10083333
0.39798993 0.13266331 6.0301504 0.16583334
0.54715025 0.13678756 6.2176166 0.16083333
-0.15867768 0.23801653 9.9173555 0.10083333
-0.13884297 0.23801653 9.9173555 0.10083333
-0.11900827 0.23801653 9.9173555 0.10083333
0.019354837 0.23225805 9.6774187 0.10333334
0.37386933 0.14472361 6.0301504 0.16583334
0.38592961 0.14472361 6.0301504 0.16583334
0.42211053 0.14472361 6.0301504 0.16583334
-0.81290317 0.25161287 9.6774187 0.10333334
-0.81290317 0.27096772 9.6774187 0.10333334
0.37386933 0.16884421 6.0301504 0.16583334
0.38592961 0.16884421 6.0301504 0.16583334
-0.81290317 0.29032257 9.6774187 0.10333334
0 0.29752067 9.9173555 0.10083333
0.41652894 0.29752067 9.9173555 0.10083333
0.43636364 0.29752067 9.9173555 0.10083333
0.45619836 0.29752067 9.9173555 0.10083333
0.47603306 0.29752067 9.9173555 0.10083333
-0.87272727 0.31735536 9.9173555 0.10083333
-0.85289258 0.31735536 9.9173555 0.10083333
-0.20502511 0.19296481 6.0301504 0.16583334
-0.24935067 0.24935067 7.7922082 0.12833333
-0.18090451 0.19296481 6.0301504 0.16583334
-0.21818183 0.24935067 7.7922082 0.12833333
-0.20259741 0.24935067 7.7922082 0.12833333
-0.207874 0.30236217 9.4488182 0.10583334
-0.11900827 0.31735536 9.9173555 0.10083333
0.25846153 0.29538462 9.2307692 0.10833333
-0.87272727 0.33719009 9.9173555 0.10083333
-0.85289258 0.33719009 9.9173555 0.10083333
-0.5774436 0.30676693 9.0225563 0.11083333
-0.55939847 0.30676693 9.0225563 0.11083333
-0.11900827 0.33719009 9.9173555 0.10083333
0 0.33719009 9.9173555 0.10083333
0.01983471 0.33719009 9.9173555 0.10083333
-0.57230771 0.3323077 9.2307692 0.10833333
-0.5413534 0.32481202 9.0225563 0.11083333
-0.19296481 0.21708542 6.0301504 0.16583334
-0.18090451 0.21708542 6.0301504 0.16583334
-0.21818183 0.28051949 7.7922082 0.12833333
-0.099173553 0.35702479 9.9173555 0.10083333
0 0.35702479 9.9173555 0.10083333
0.01983471 0.35702479 9.9173555 0.10083333
0.27692306 0.3323077 9.2307692 0.10833333
-0.59076923 0.35076922 9.2307692 0.10833333
-0.11900827 0.37685952 9.9173555 0.10083333
-0.099173553 0.37685952 9.9173555 0.10083333
-0.079338841 0.37685952 9.9173555 0.10083333
-0.059504133 0.37685952 9.9173555 0.10083333
0.039669421 0.37685952 9.9173555 0.10083333
-0.099173553 0.39669421 9.9173555 0.10083333
-0.059504133 0.39669421 9.9173555 0.10083333
0.2108108 0.32432431 8.1081076 0.12333334
0.42461538 0.36923078 9.2307692 0.10833333
0.89256197 0.39669421 9.9173555 0.10083333
-0.059504133 0.41652894 9.9173555 0.10083333
-0.21290322 0.42580643 9.6774187 0.10333334
0.26574394 0.18269895 4.1522489 0.24083334
0.89256197 0.43636364 9.9173555 0.10083333
0.91239673 0.43636364 9.9173555 0.10083333
0.23355703 0.18523489 4.0268455 0.24833335
0.24913493 0.19100344 4.1522489 0.24083334
0.25743943 0.19100344 4.1522489 0.24083334
0.26574394 0.19100344 4.1522489 0.24083334
0.39798993 0.27738693 6.0301504 0.16583334
0.41005021 0.27738693 6.0301504 0.16583334
0.29065743 0.19100344 4.1522489 0.24083334
-0.68344373 0.38145697 7.9470201 0.12583333
-0.66754967 0.38145697 7.9470201 0.12583333
-0.65165567 0.38145697 7.9470201 0.12583333
-0.63576162 0.38145697 7.9470201 0.12583333
-0.66754967 0.397351 7.9470201 0.12583333
0 0.49586779 9.9173555 0.10083333
0.34974873 0.30150753 6.0301504 0.16583334
0.36180902 0.30150753 6.0301504 0.16583334
0.25743943 0.20761244 4.1522489 0.24083334
0.26574394 0.20761244 4.1522489 0.24083334
0.39798993 0.30150753 6.0301504 0.16583334
0.41005021 0.30150753 6.0301504 0.16583334
-0.66754967 0.41324505 7.9470201 0.12583333
-0.55537188 0.53553718 9.9173555 0.10083333
-0.53553718 0.53553718 9.9173555 0.10083333
-0.51570249 0.53553718 9.9173555 0.10083333
0 0.53553718 9.9173555 0.10083333
0.061224494 0.33061227 6.1224494 0.16333333
-0.64962405 0.50526315 9.0225563 0.11083333
-0.63157892 0.50526315 9.0225563 0.11083333
-0.51570249 0.55537188 9.9173555 0.10083333
-0.49586779 0.55537188 9.9173555 0.10083333
-0.47603306 0.55537188 9.9173555 0.10083333
-0.31448275 0.46344826 8.2758617 0.12083334
-0.46113539 0.30393013 5.2401748 0.19083333
0.47603306 0.57520664 9.9173555 0.10083333
0.49586779 0.57520664 9.9173555 0.10083333
0.53553718 0.57520664 9.9173555 0.10083333
-0.45065504 0.31441048 5.2401748 0.19083333
-0.44017467 0.31441048 5.2401748 0.19083333
-0.42969432 0.31441048 5.2401748 0.19083333
-0.31448275 0.49655169 8.2758617 0.12083334
-0.29793102 0.49655169 8.2758617 0.12083334
-0.28137931 0.49655169 8.2758617 0.12083334
0.061224494 0.36734697 6.1224494 0.16333333
0.073469393 0.36734697 6.1224494 0.16333333
0.085714288 0.36734697 6.1224494 0.16333333
0.49586779 0.59504133 9.9173555 0.10083333
0.35083058 0.23920266 3.986711 0.25083333
0.35880399 0.23920266 3.986711 0.25083333
0.36677742 0.23920266 3.986711 0.25083333
0.37475082 0.23920266 3.986711 0.25083333
