# .PCD v0.7 - Point Cloud Data file format
VERSION 0.7
FIELDS x y z intensity
SIZE 4 4 4 4
TYPE F F F F
COUNT 1 1 1 1
WIDTH 395
HEIGHT 1
VIEWPOINT 0 0 0 1 0 0 0
POINTS 395
DATA ascii
-0.31823203 -0.39779004 6.6298342 0.15083334
-0.30497238 -0.39779004 6.6298342 0.15083334
-0.2917127 -0.39779004 6.6298342 0.15083334
-0.27845302 -0.39779004 6.6298342 0.15083334
0.716129 -0.56129026 9.6774187 0.10333334
0.73548383 -0.56129026 9.6774187 0.10333334
0.75483865 -0.56129026 9.6774187 0.10333334
0.77419353 -0.56129026 9.6774187 0.10333334
0.16504298 -0.19255015 3.4383955 0.29083332
0.37499997 -0.41999999 7.4999995 0.13333334
0.40499997 -0.41999999 7.4999995 0.13333334
0.716129 -0.54193544 9.6774187 0.10333334
0.73548383 -0.54193544 9.6774187 0.10333334
-0.75590545 -0.5102362 9.4488182 0.10583334
-0.7370078 -0.5102362 9.4488182 0.10583334
-0.44516125 -0.52258062 9.6774187 0.10333334
-0.75590545 -0.49133855 9.4488182 0.10583334
-0.021818181 -0.28363636 5.4545455 0.18333334
-0.010909091 -0.28363636 5.4545455 0.18333334
0 -0.28363636 5.4545455 0.18333334
0.010909091 -0.28363636 5.4545455 0.18333334
0.01751825 -0.22773725 4.3795624 0.22833331
0.026277374 -0.22773725 4.3795624 0.22833331
0.035036501 -0.22773725 4.3795624 0.22833331
0.043795623 -0.22773725 4.3795624 0.22833331
0.38999999 -0.38999999 7.4999995 0.13333334
0.43756905 -0.34475139 6.6298342 0.15083334
-0.75590545 -0.4724409 9.4488182 0.10583334
0.010909091 -0.27272728 5.4545455 0.18333334
0.13065903 -0.17191978 3.4383955 0.29083332
0.13753583 -0.17191978 3.4383955 0.29083332
0.14441261 -0.17191978 3.4383955 0.29083332
0.1512894 -0.17191978 3.4383955 0.29083332
0.35999998 -0.37499997 7.4999995 0.13333334
0.37499997 -0.37499997 7.4999995 0.13333334
0.38999999 -0.37499997 7.4999995 0.13333334
-0.3323077 -0.44307691 9.2307692 0.10833333
-0.31384614 -0.44307691 9.2307692 0.10833333
0.052401748 -0.25152838 5.2401748 0.19083333
0.062882096 -0.25152838 5.2401748 0.19083333
0.073362447 -0.25152838 5.2401748 0.19083333
0.083842799 -0.25152838 5.2401748 0.19083333
0.47999999 -0.44307691 9.2307692 0.10833333
0.42430937 -0.31823203 6.6298342 0.15083334
-0.79354835 -0.44516125 9.6774187 0.10333334
-0.50322574 -0.44516125 9.6774187 0.10333334
-0.48387092 -0.44516125 9.6774187 0.10333334
-0.35076922 -0.42461538 9.2307692 0.10833333
0.49846154 -0.42461538 9.2307692 0.10833333
0.51692307 -0.42461538 9.2307692 0.10833333
0.42430937 -0.30497238 6.6298342 0.15083334
0.43756905 -0.30497238 6.6298342 0.15083334
0.46408838 -0.30497238 6.6298342 0.15083334
-0.81290317 -0.42580643 9.6774187 0.10333334
-0.79354835 -0.42580643 9.6774187 0.10333334
-0.52258062 -0.42580643 9.6774187 0.10333334
-0.48387092 -0.42580643 9.6774187 0.10333334
-0.3323077 -0.40615386 9.2307692 0.10833333
-0.81290317 -0.40645158 9.6774187 0.10333334
0.46408838 -0.27845302 6.6298342 0.15083334
-0.83225799 -0.38709676 9.6774187 0.10333334
-0.81290317 -0.38709676 9.6774187 0.10333334
-0.36923078 -0.35076922 9.2307692 0.10833333
-0.3323077 -0.35076922 9.2307692 0.10833333
-0.11338582 -0.3590551 9.4488182 0.10583334
0.53932583 -0.25617978 6.7415729 0.14833334
-0.59076923 -0.3323077 9.2307692 0.10833333
-0.57230771 -0.3323077 9.2307692 0.10833333
-0.55384612 -0.3323077 9.2307692 0.10833333
-0.5353846 -0.3323077 9.2307692 0.10833333
-0.51692307 -0.3323077 9.2307692 0.10833333
-0.11338582 -0.34015745 9.4488182 0.10583334
0.43255815 -0.2511628 6.9767442 0.14333333
0.44651163 -0.2511628 6.9767442 0.14333333
0.4604651 -0.2511628 6.9767442 0.14333333
0.47441861 -0.2511628 6.9767442 0.14333333
-0.5353846 -0.31384614 9.2307692 0.10833333
-0.11338582 -0.32125983 9.4488182 0.10583334
-0.094488181 -0.32125983 9.4488182 0.10583334
-0.027906977 -0.22325581 6.9767442 0.14333333
-0.013953488 -0.22325581 6.9767442 0.14333333
0 -0.22325581 6.9767442 0.14333333
0.013953488 -0.22325581 6.9767442 0.14333333
0.027906977 -0.22325581 6.9767442 0.14333333
0.44651163 -0.22325581 6.9767442 0.14333333
0.4604651 -0.22325581 6.9767442 0.14333333
-0.29999998 -0.26470587 8.8235292 0.11333334
0.85289258 -0.29752067 9.9173555 0.10083333
-0.55384612 -0.25846153 9.2307692 0.10833333
-0.3352941 -0.24705882 8.8235292 0.11333334
-0.31764704 -0.24705882 8.8235292 0.11333334
-0.29999998 -0.24705882 8.8235292 0.11333334
-0.28235292 -0.24705882 8.8235292 0.11333334
-0.26470587 -0.24705882 8.8235292 0.11333334
-0.24705882 -0.24705882 8.8235292 0.11333334
0.39252335 -0.15700933 5.6074762 0.17833334
0.40373829 -0.15700933 5.6074762 0.17833334
0.41495323 -0.15700933 5.6074762 0.17833334
0.4752475 -0.16633663 5.9405937 0.16833334
0.87272727 -0.27768594 9.9173555 0.10083333
0.89256197 -0.27768594 9.9173555 0.10083333
-0.81230772 -0.23999999 9.2307692 0.10833333
0.40645158 -0.25161287 9.6774187 0.10333334
0.42580643 -0.25161287 9.6774187 0.10333334
0.39252335 -0.14579438 5.6074762 0.17833334
0.89256197 -0.25785124 9.9173555 0.10083333
-0.81230772 -0.22153845 9.2307692 0.10833333
-0.7753846 -0.22153845 9.2307692 0.10833333
-0.46628568 -0.16457142 6.8571424 0.14583334
-0.55384612 -0.22153845 9.2307692 0.10833333
-0.5353846 -0.22153845 9.2307692 0.10833333
-0.51692307 -0.22153845 9.2307692 0.10833333
-0.26470587 -0.21176471 8.8235292 0.11333334
0.38709676 -0.23225805 9.6774187 0.10333334
0.40645158 -0.23225805 9.6774187 0.10333334
0.4752475 -0.14257425 5.9405937 0.16833334
-0.83076924 -0.20307693 9.2307692 0.10833333
-0.81230772 -0.20307693 9.2307692 0.10833333
-0.65611511 -0.17266187 8.6330938 0.11583333
-0.21818182 -0.19834711 9.9173555 0.10083333
0.040677965 -0.20338982 10.169491 0.098333344
0.020338982 -0.18305084 10.169491 0.098333344
0.040677965 -0.18305084 10.169491 0.098333344
-0.23801653 -0.15867768 9.9173555 0.10083333
0.020338982 -0.16271186 10.169491 0.098333344
0.41652894 -0.15867768 9.9173555 0.10083333
0.89256197 -0.15867768 9.9173555 0.10083333
0.91239673 -0.15867768 9.9173555 0.10083333
-0.27768594 -0.13884297 9.9173555 0.10083333
-0.25785124 -0.13884297 9.9173555 0.10083333
-0.23801653 -0.13884297 9.9173555 0.10083333
0 -0.14237288 10.169491 0.098333344
0.41652894 -0.13884297 9.9173555 0.10083333
0.91239673 -0.13884297 9.9173555 0.10083333
-0.020338982 -0.12203389 10.169491 0.098333344
0.89256197 -0.11900827 9.9173555 0.10083333
0.91239673 -0.11900827 9.9173555 0.10083333
-0.020338982 -0.10169491 10.169491 0.098333344
0 -0.10169491 10.169491 0.098333344
0.34475139 -0.066298343 6.6298342 0.15083334
0.3845304 -0.066298343 6.6298342 0.15083334
0.58705038 -0.086330935 8.6330938 0.11583333
-0.66766918 -0.07218045 9.0225563 0.11083333
0.3845304 -0.053038672 6.6298342 0.15083334
0.55251801 -0.069064751 8.6330938 0.11583333
0.58705038 -0.069064751 8.6330938 0.11583333
0.60431659 -0.069064751 8.6330938 0.11583333
-0.6857143 -0.054135337 9.0225563 0.11083333
-0.49586779 -0.059504133 9.9173555 0.10083333
-0.47603306 -0.059504133 9.9173555 0.10083333
-0.24782608 -0.039130434 6.521739 0.15333334
-0.86929125 -0.037795272 9.4488182 0.10583334
-0.54857141 -0.027428569 6.8571424 0.14583334
-0.53485709 -0.027428569 6.8571424 0.14583334
-0.49586779 -0.039669421 9.9173555 0.10083333
-0.43636364 -0.039669421 9.9173555 0.10083333
-0.26086956 -0.026086956 6.521739 0.15333334
-0.24782608 -0.026086956 6.521739 0.15333334
0.20307693 -0.036923077 9.2307692 0.10833333
-0.86929125 -0.018897636 9.4488182 0.10583334
-0.85039365 -0.018897636 9.4488182 0.10583334
-0.49586779 -0.01983471 9.9173555 0.10083333
-0.47603306 -0.01983471 9.9173555 0.10083333
-0.26086956 -0.013043478 6.521739 0.15333334
-0.24782608 -0.013043478 6.521739 0.15333334
0.20307693 -0.018461538 9.2307692 0.10833333
0.43317074 -0.011707317 5.8536587 0.17083333
0.39310345 -0.010344828 5.1724138 0.19333333
0.40344828 -0.010344828 5.1724138 0.19333333
0.46829268 -0.011707317 5.8536587 0.17083333
0.43448275 -0.010344828 5.1724138 0.19333333
0.64785272 -0.014723926 7.3619628 0.13583334
0.66257668 -0.014723926 7.3619628 0.13583334
0.67730057 -0.014723926 7.3619628 0.13583334
-0.86929125 0 9.4488182 0.10583334
-0.85039365 0 9.4488182 0.10583334
-0.49586779 0 9.9173555 0.10083333
-0.47603306 0 9.9173555 0.10083333
0.16615385 0 9.2307692 0.10833333
0.18461539 0 9.2307692 0.10833333
-0.49586779 0.01983471 9.9173555 0.10083333
-0.23376624 0.015584417 7.7922082 0.12833333
-0.23376624 0.031168833 7.7922082 0.12833333
0.16929461 0.019917013 4.9792533 0.20083332
0.17925312 0.019917013 4.9792533 0.20083332
0.18921162 0.019917013 4.9792533 0.20083332
0.19917013 0.019917013 4.9792533 0.20083332
0.47191009 0.026966291 6.7415729 0.14833334
0.43317074 0.023414634 5.8536587 0.17083333
0.44487807 0.023414634 5.8536587 0.17083333
0.40344828 0.020689655 5.1724138 0.19333333
0.41379312 0.020689655 5.1724138 0.19333333
0.43448275 0.020689655 5.1724138 0.19333333
0.64785272 0.029447852 7.3619628 0.13583334
0.66257668 0.029447852 7.3619628 0.13583334
0.43146065 0.040449437 6.7415729 0.14833334
0.44494382 0.040449437 6.7415729 0.14833334
-0.47999999 0.073846154 9.2307692 0.10833333
0.11659918 0.038866393 4.8582993 0.20583335
0.16518217 0.038866393 4.8582993 0.20583335
0.18921162 0.039834026 4.9792533 0.20083332
0.19917013 0.039834026 4.9792533 0.20083332
0.18597786 0.035424355 4.4280443 0.22583333
0.47191009 0.053932581 6.7415729 0.14833334
-0.31659576 0.051063832 5.1063833 0.19583333
0.11659918 0.048582993 4.8582993 0.20583335
0.12631579 0.048582993 4.8582993 0.20583335
0.14574897 0.048582993 4.8582993 0.20583335
0.15546557 0.048582993 4.8582993 0.20583335
0.44494382 0.067415729 6.7415729 0.14833334
0.47191009 0.067415729 6.7415729 0.14833334
-0.6171428 0.08228571 6.8571424 0.14583334
-0.60342854 0.08228571 6.8571424 0.14583334
-0.58971423 0.08228571 6.8571424 0.14583334
-0.34723407 0.0612766 5.1063833 0.19583333
0.19917013 0.059751041 4.9792533 0.20083332
0.22904564 0.059751041 4.9792533 0.20083332
0.34285712 0.08228571 6.8571424 0.14583334
0.37028569 0.095999993 6.8571424 0.14583334
-0.58971423 0.10971428 6.8571424 0.14583334
-0.73984963 0.1443609 9.0225563 0.11083333
-0.7218045 0.1443609 9.0225563 0.11083333
-0.34723407 0.0919149 5.1063833 0.19583333
-0.33702129 0.0919149 5.1063833 0.19583333
-0.32680854 0.0919149 5.1063833 0.19583333
-0.31659576 0.0919149 5.1063833 0.19583333
-0.12923077 0.16615385 9.2307692 0.10833333
0.32542372 0.18305084 10.169491 0.098333344
-0.16615385 0.18461539 9.2307692 0.10833333
0.83076924 0.18461539 9.2307692 0.10833333
0.84923077 0.18461539 9.2307692 0.10833333
0.36000001 0.12 5.4545455 0.18333334
0.81230772 0.20307693 9.2307692 0.10833333
0.83076924 0.20307693 9.2307692 0.10833333
0.84923077 0.20307693 9.2307692 0.10833333
-0.14769231 0.22153845 9.2307692 0.10833333
0.018897636 0.22677164 9.4488182 0.10583334
0.037795272 0.22677164 9.4488182 0.10583334
0.056692909 0.22677164 9.4488182 0.10583334
0.10384615 0.13846153 5.7692304 0.17333335
0.11538461 0.13846153 5.7692304 0.17333335
0.28458497 0.11383399 4.743083 0.21083334
0.33818182 0.13090909 5.4545455 0.18333334
0.36000001 0.13090909 5.4545455 0.18333334
0.37090909 0.13090909 5.4545455 0.18333334
0.018897636 0.24566928 9.4488182 0.10583334
0.073846154 0.25846153 9.2307692 0.10833333
0.092307694 0.25846153 9.2307692 0.10833333
0.11076923 0.25846153 9.2307692 0.10833333
0.093658537 0.16390245 5.8536587 0.17083333
0.10384615 0.16153845 5.7692304 0.17333335
0.11538461 0.16153845 5.7692304 0.17333335
0.14999999 0.16153845 5.7692304 0.17333335
0.28458497 0.13280633 4.743083 0.21083334
0.36000001 0.15272728 5.4545455 0.18333334
0.81230772 0.25846153 9.2307692 0.10833333
0.83076924 0.25846153 9.2307692 0.10833333
-0.83305788 0.29752067 9.9173555 0.10083333
0 0.28346455 9.4488182 0.10583334
0.47603306 0.29752067 9.9173555 0.10083333
-0.85289258 0.31735536 9.9173555 0.10083333
-0.83305788 0.31735536 9.9173555 0.10083333
-0.61487603 0.31735536 9.9173555 0.10083333
-0.59504133 0.31735536 9.9173555 0.10083333
-0.21573032 0.21573032 6.7415729 0.14833334
-0.20224719 0.21573032 6.7415729 0.14833334
-0.18876404 0.21573032 6.7415729 0.14833334
-0.21971829 0.27042252 8.4507036 0.11833334
-0.20281689 0.27042252 8.4507036 0.11833334
0.45619836 0.31735536 9.9173555 0.10083333
0.47603306 0.31735536 9.9173555 0.10083333
0.49586779 0.31735536 9.9173555 0.10083333
0.2750988 0.15177865 4.743083 0.21083334
0.28458497 0.15177865 4.743083 0.21083334
-0.85289258 0.33719009 9.9173555 0.10083333
-0.83305788 0.33719009 9.9173555 0.10083333
-0.65454549 0.33719009 9.9173555 0.10083333
-0.63471073 0.33719009 9.9173555 0.10083333
-0.61487603 0.33719009 9.9173555 0.10083333
-0.43464562 0.32125983 9.4488182 0.10583334
-0.415748 0.32125983 9.4488182 0.10583334
-0.11900827 0.33719009 9.9173555 0.10083333
0 0.32125983 9.4488182 0.10583334
0.018897636 0.32125983 9.4488182 0.10583334
-0.83305788 0.35702479 9.9173555 0.10083333
-0.61487603 0.35702479 9.9173555 0.10083333
-0.59504133 0.35702479 9.9173555 0.10083333
-0.20224719 0.24269663 6.7415729 0.14833334
-0.18876404 0.24269663 6.7415729 0.14833334
-0.21971829 0.30422533 8.4507036 0.11833334
-0.20281689 0.30422533 8.4507036 0.11833334
-0.099173553 0.35702479 9.9173555 0.10083333
0.018897636 0.34015745 9.4488182 0.10583334
0.11881188 0.21386138 5.9405937 0.16833334
0.14257425 0.21386138 5.9405937 0.16833334
0.15445544 0.21386138 5.9405937 0.16833334
0.16633663 0.21386138 5.9405937 0.16833334
0.415748 0.34015745 9.4488182 0.10583334
-0.67438018 0.37685952 9.9173555 0.10083333
-0.59504133 0.37685952 9.9173555 0.10083333
-0.11900827 0.37685952 9.9173555 0.10083333
-0.099173553 0.37685952 9.9173555 0.10083333
-0.079338841 0.37685952 9.9173555 0.10083333
-0.59504133 0.39669421 9.9173555 0.10083333
-0.099173553 0.39669421 9.9173555 0.10083333
0.15445544 0.23762375 5.9405937 0.16833334
0.39685038 0.37795272 9.4488182 0.10583334
0.415748 0.37795272 9.4488182 0.10583334
0.43464562 0.37795272 9.4488182 0.10583334
0.26234815 0.19433197 4.8582993 0.20583335
0.28178135 0.19433197 4.8582993 0.20583335
0.35121953 0.23414634 5.8536587 0.17083333
-0.21818182 0.41652894 9.9173555 0.10083333
-0.21818182 0.43636364 9.9173555 0.10083333
-0.19834711 0.43636364 9.9173555 0.10083333
0.22677164 0.415748 9.4488182 0.10583334
0.37463415 0.25756097 5.8536587 0.17083333
-0.21818182 0.45619836 9.9173555 0.10083333
0.26234815 0.22348176 4.8582993 0.20583335
0.27206475 0.22348176 4.8582993 0.20583335
0.28178135 0.22348176 4.8582993 0.20583335
0.29149795 0.22348176 4.8582993 0.20583335
0.36292684 0.2692683 5.8536587 0.17083333
0.37463415 0.2692683 5.8536587 0.17083333
0.39804879 0.2692683 5.8536587 0.17083333
-0.79384613 0.44307691 9.2307692 0.10833333
-0.7753846 0.44307691 9.2307692 0.10833333
-0.75692308 0.44307691 9.2307692 0.10833333
-0.73846155 0.44307691 9.2307692 0.10833333
-0.71999997 0.44307691 9.2307692 0.10833333
-0.70153844 0.44307691 9.2307692 0.10833333
-0.21818182 0.47603306 9.9173555 0.10083333
0.21971829 0.40563378 8.4507036 0.11833334
0.2366197 0.40563378 8.4507036 0.11833334
-0.79384613 0.46153846 9.2307692 0.10833333
-0.7753846 0.46153846 9.2307692 0.10833333
0.27206475 0.24291496 4.8582993 0.20583335
0.31636363 0.27272728 5.4545455 0.18333334
0.32727274 0.27272728 5.4545455 0.18333334
0.36292684 0.29268295 5.8536587 0.17083333
0.37463415 0.29268295 5.8536587 0.17083333
0.38634148 0.29268295 5.8536587 0.17083333
0.39804879 0.29268295 5.8536587 0.17083333
0.3188192 0.22140221 4.4280443 0.22583333
0.32767528 0.22140221 4.4280443 0.22583333
-0.7753846 0.47999999 9.2307692 0.10833333
-0.69921255 0.49133855 9.4488182 0.10583334
-0.6803149 0.49133855 9.4488182 0.10583334
-0.49586779 0.51570249 9.9173555 0.10083333
-0.51570249 0.53553718 9.9173555 0.10083333
-0.23101604 0.34652406 6.4171124 0.15583333
-0.2053476 0.34652406 6.4171124 0.15583333
0.019354837 0.52258062 9.6774187 0.10333334
0.058064513 0.52258062 9.6774187 0.10333334
0.42580643 0.52258062 9.6774187 0.10333334
0.44516125 0.52258062 9.6774187 0.10333334
0.33653137 0.23911439 4.4280443 0.22583333
0.34538746 0.23911439 4.4280443 0.22583333
0.35424355 0.23911439 4.4280443 0.22583333
-0.69921255 0.5291338 9.4488182 0.10583334
-0.6803149 0.5291338 9.4488182 0.10583334
-0.69421488 0.55537188 9.9173555 0.10083333
-0.67438018 0.55537188 9.9173555 0.10083333
-0.51570249 0.55537188 9.9173555 0.10083333
-0.49586779 0.55537188 9.9173555 0.10083333
0.019354837 0.54193544 9.6774187 0.10333334
0.32542372 0.56949151 10.169491 0.098333344
0.3457627 0.56949151 10.169491 0.098333344
0.40645158 0.54193544 9.6774187 0.10333334
-0.85289258 0.57520664 9.9173555 0.10083333
-0.81322318 0.57520664 9.9173555 0.10083333
-0.79338843 0.57520664 9.9173555 0.10083333
-0.69421488 0.57520664 9.9173555 0.10083333
0.038709674 0.56129026 9.6774187 0.10333334
0.32542372 0.58983046 10.169491 0.098333344
0.42580643 0.56129026 9.6774187 0.10333334
0.44516125 0.56129026 9.6774187 0.10333334
0.4645161 0.56129026 9.6774187 0.10333334
0.48387092 0.56129026 9.6774187 0.10333334
0.50322574 0.56129026 9.6774187 0.10333334
0.52258062 0.56129026 9.6774187 0.10333334
-0.83305788 0.59504133 9.9173555 0.10083333
-0.69421488 0.59504133 9.9173555 0.10083333
-0.23101604 0.38502675 6.4171124 0.15583333
0.28474575 0.61016947 10.169491 0.098333344
0.32542372 0.61016947 10.169491 0.098333344
0.3457627 0.61016947 10.169491 0.098333344
0.48387092 0.58064514 9.6774187 0.10333334
0.36309963 0.26568267 4.4280443 0.22583333
0.37195572 0.26568267 4.4280443 0.22583333
0.38081181 0.26568267 4.4280443 0.22583333
0.41249999 0.28125 4.6875 0.21333334
0.421875 0.28125 4.6875 0.21333334
0.43125001 0.28125 4.6875 0.21333334
0.44062501 0.28125 4.6875 0.21333334
