# .PCD v0.7 - Point Cloud Data file format
VERSION 0.7
FIELDS x y z intensity
SIZE 4 4 4 4
TYPE F F F F
COUNT 1 1 1 1
WIDTH 470
HEIGHT 1
VIEWPOINT 0 0 0 1 0 0 0
POINTS 470
DATA ascii
-0.51533741 -0.44171777 7.3619628 0.13583334
-0.38145697 -0.47682121 7.9470201 0.12583333
-0.36556292 -0.47682121 7.9470201 0.12583333
-0.34966889 -0.47682121 7.9470201 0.12583333
-0.17142858 -0.46753249 7.7922082 0.12833333
-0.15584417 -0.46753249 7.7922082 0.12833333
-0.55950916 -0.42699385 7.3619628 0.13583334
-0.54478526 -0.42699385 7.3619628 0.13583334
-0.5300613 -0.42699385 7.3619628 0.13583334
-0.51533741 -0.42699385 7.3619628 0.13583334
-0.36556292 -0.46092716 7.9470201 0.12583333
-0.14025974 -0.45194808 7.7922082 0.12833333
-0.12467533 -0.45194808 7.7922082 0.12833333
0.48588955 -0.42699385 7.3619628 0.13583334
0.50061345 -0.42699385 7.3619628 0.13583334
0.5300613 -0.42699385 7.3619628 0.13583334
0.5656051 -0.44331211 7.6433125 0.13083333
0.58089173 -0.44331211 7.6433125 0.13083333
0.59617835 -0.44331211 7.6433125 0.13083333
0.61146498 -0.44331211 7.6433125 0.13083333
0.6267516 -0.44331211 7.6433125 0.13083333
-0.48588955 -0.41226992 7.3619628 0.13583334
-0.47116563 -0.41226992 7.3619628 0.13583334
-0.36556292 -0.44503313 7.9470201 0.12583333
0.5300613 -0.41226992 7.3619628 0.13583334
0.5656051 -0.42802548 7.6433125 0.13083333
0.58089173 -0.42802548 7.6433125 0.13083333
0.59617835 -0.42802548 7.6433125 0.13083333
-0.48588955 -0.39754599 7.3619628 0.13583334
-0.47116563 -0.39754599 7.3619628 0.13583334
-0.36556292 -0.42913908 7.9470201 0.12583333
-0.18343949 -0.41273886 7.6433125 0.13083333
0.58089173 -0.41273886 7.6433125 0.13083333
0.59617835 -0.41273886 7.6433125 0.13083333
-0.21401274 -0.39745224 7.6433125 0.13083333
-0.19872612 -0.39745224 7.6433125 0.13083333
-0.18343949 -0.39745224 7.6433125 0.13083333
0 -0.36923078 7.1005917 0.14083333
0.014201183 -0.36923078 7.1005917 0.14083333
0.028402366 -0.36923078 7.1005917 0.14083333
0.042603549 -0.36923078 7.1005917 0.14083333
0.35159236 -0.38216561 7.6433125 0.13083333
0.36687899 -0.38216561 7.6433125 0.13083333
0.38216561 -0.38216561 7.6433125 0.13083333
0.39745224 -0.38216561 7.6433125 0.13083333
0.10700637 -0.36687899 7.6433125 0.13083333
0.122293 -0.36687899 7.6433125 0.13083333
0.15286624 -0.36687899 7.6433125 0.13083333
0.38216561 -0.36687899 7.6433125 0.13083333
-0.65165567 -0.36556292 7.9470201 0.12583333
-0.061341856 -0.17635784 3.8338659 0.26083332
-0.053674124 -0.17635784 3.8338659 0.26083332
-0.046006389 -0.17635784 3.8338659 0.26083332
-0.66754967 -0.34966889 7.9470201 0.12583333
-0.65165567 -0.34966889 7.9470201 0.12583333
-0.63576162 -0.34966889 7.9470201 0.12583333
-0.22243904 -0.25756097 5.8536587 0.17083333
0.122293 -0.33630574 7.6433125 0.13083333
-0.66754967 -0.33377483 7.9470201 0.12583333
-0.10306748 -0.30920243 7.3619628 0.13583334
-0.046006389 -0.16102237 3.8338659 0.26083332
-0.073619626 -0.30920243 7.3619628 0.13583334
0.091719747 -0.32101911 7.6433125 0.13083333
0.10700637 -0.32101911 7.6433125 0.13083333
0.122293 -0.32101911 7.6433125 0.13083333
0.40373829 -0.235514 5.6074762 0.17833334
0.41495323 -0.235514 5.6074762 0.17833334
-0.66754967 -0.31788081 7.9470201 0.12583333
-0.088343553 -0.27975458 7.3619628 0.13583334
0.59617835 -0.29044586 7.6433125 0.13083333
0.61146498 -0.29044586 7.6433125 0.13083333
-0.49655169 -0.29793102 8.2758617 0.12083334
-0.47999999 -0.29793102 8.2758617 0.12083334
-0.46344826 -0.29793102 8.2758617 0.12083334
-0.44689652 -0.29793102 8.2758617 0.12083334
-0.088343553 -0.26503065 7.3619628 0.13583334
0.041860465 -0.2511628 6.9767442 0.14333333
0.24966441 -0.14496644 4.0268455 0.24833335
0.25771812 -0.14496644 4.0268455 0.24833335
0.37009344 -0.20186915 5.6074762 0.17833334
0.38130838 -0.20186915 5.6074762 0.17833334
0.39252335 -0.20186915 5.6074762 0.17833334
0.41495323 -0.20186915 5.6074762 0.17833334
-0.28137931 -0.28137931 8.2758617 0.12083334
0.24161072 -0.13691275 4.0268455 0.24833335
0.74117649 -0.29999998 8.8235292 0.11333334
0.013953488 -0.22325581 6.9767442 0.14333333
0.027906977 -0.22325581 6.9767442 0.14333333
0.21744965 -0.12885906 4.0268455 0.24833335
0.22550334 -0.12885906 4.0268455 0.24833335
0.23355703 -0.12885906 4.0268455 0.24833335
0.24161072 -0.12885906 4.0268455 0.24833335
0.35887849 -0.17943925 5.6074762 0.17833334
0.38130838 -0.17943925 5.6074762 0.17833334
0.39252335 -0.17943925 5.6074762 0.17833334
0.74117649 -0.28235292 8.8235292 0.11333334
0.75882351 -0.28235292 8.8235292 0.11333334
0.7764706 -0.28235292 8.8235292 0.11333334
-0.28137931 -0.24827585 8.2758617 0.12083334
-0.26482758 -0.24827585 8.2758617 0.12083334
-0.29793102 -0.23172413 8.2758617 0.12083334
-0.28137931 -0.23172413 8.2758617 0.12083334
-0.26482758 -0.23172413 8.2758617 0.12083334
0.26117647 -0.098823532 3.5294118 0.28333333
0.37058824 -0.22941177 8.8235292 0.11333334
0.3882353 -0.22941177 8.8235292 0.11333334
0.40588236 -0.22941177 8.8235292 0.11333334
0.24705882 -0.091764703 3.5294118 0.28333333
-0.37944663 -0.11383399 4.743083 0.21083334
-0.36996049 -0.11383399 4.743083 0.21083334
-0.53964496 -0.17041419 7.1005917 0.14083333
0.030573251 -0.18343949 7.6433125 0.13083333
0.35294116 -0.21176471 8.8235292 0.11333334
0.37058824 -0.21176471 8.8235292 0.11333334
0.28235295 -0.084705882 3.5294118 0.28333333
-0.70318472 -0.16815287 7.6433125 0.13083333
-0.6878981 -0.16815287 7.6433125 0.13083333
-0.4173913 -0.10434783 4.743083 0.21083334
-0.40790513 -0.10434783 4.743083 0.21083334
0.28235295 -0.07764706 3.5294118 0.28333333
-0.53964496 -0.14201184 7.1005917 0.14083333
-0.60472435 -0.18897636 9.4488182 0.10583334
0.030573251 -0.15286624 7.6433125 0.13083333
0.045859873 -0.15286624 7.6433125 0.13083333
0.44819278 -0.14457831 7.2289157 0.13833334
0.4626506 -0.14457831 7.2289157 0.13833334
0.26117647 -0.070588239 3.5294118 0.28333333
-0.4173913 -0.085375495 4.743083 0.21083334
-0.65732485 -0.13757962 7.6433125 0.13083333
-0.39841896 -0.085375495 4.743083 0.21083334
-0.58224851 -0.12781066 7.1005917 0.14083333
-0.53964496 -0.12781066 7.1005917 0.14083333
-0.52544379 -0.12781066 7.1005917 0.14083333
-0.58582675 -0.17007872 9.4488182 0.10583334
0.015286625 -0.13757962 7.6433125 0.13083333
0.030573251 -0.13757962 7.6433125 0.13083333
-0.67261147 -0.122293 7.6433125 0.13083333
-0.65732485 -0.122293 7.6433125 0.13083333
-0.60472435 -0.15118109 9.4488182 0.10583334
-0.58582675 -0.15118109 9.4488182 0.10583334
0 -0.122293 7.6433125 0.13083333
0.74482757 -0.13241379 8.2758617 0.12083334
0.7613793 -0.13241379 8.2758617 0.12083334
-0.55031848 -0.10700637 7.6433125 0.13083333
0 -0.10700637 7.6433125 0.13083333
0.7613793 -0.11586206 8.2758617 0.12083334
-0.71847135 -0.091719747 7.6433125 0.13083333
-0.70318472 -0.091719747 7.6433125 0.13083333
-0.6878981 -0.091719747 7.6433125 0.13083333
-0.55031848 -0.091719747 7.6433125 0.13083333
0.7117241 -0.099310338 8.2758617 0.12083334
0.74482757 -0.099310338 8.2758617 0.12083334
0.7613793 -0.099310338 8.2758617 0.12083334
0.77793097 -0.099310338 8.2758617 0.12083334
0.79448271 -0.099310338 8.2758617 0.12083334
-0.70318472 -0.076433122 7.6433125 0.13083333
-0.5656051 -0.076433122 7.6433125 0.13083333
-0.55031848 -0.076433122 7.6433125 0.13083333
-0.015286625 -0.076433122 7.6433125 0.13083333
0 -0.076433122 7.6433125 0.13083333
0.41273886 -0.076433122 7.6433125 0.13083333
0.42802548 -0.076433122 7.6433125 0.13083333
0.44331211 -0.076433122 7.6433125 0.13083333
-0.70318472 -0.061146501 7.6433125 0.13083333
-0.5656051 -0.061146501 7.6433125 0.13083333
0.015286625 -0.061146501 7.6433125 0.13083333
0.44331211 -0.061146501 7.6433125 0.13083333
-0.59617835 -0.045859873 7.6433125 0.13083333
-0.58089173 -0.045859873 7.6433125 0.13083333
-0.5656051 -0.045859873 7.6433125 0.13083333
-0.38961041 -0.04675325 7.7922082 0.12833333
-0.374026 -0.04675325 7.7922082 0.12833333
0.207874 -0.056692909 9.4488182 0.10583334
0.44331211 -0.045859873 7.6433125 0.13083333
-0.70318472 -0.030573251 7.6433125 0.13083333
-0.61146498 -0.030573251 7.6433125 0.13083333
-0.59617835 -0.030573251 7.6433125 0.13083333
-0.58089173 -0.030573251 7.6433125 0.13083333
-0.397351 -0.031788081 7.9470201 0.12583333
-0.374026 -0.031168833 7.7922082 0.12833333
-0.34285715 -0.031168833 7.7922082 0.12833333
-0.32727274 -0.031168833 7.7922082 0.12833333
0.207874 -0.037795272 9.4488182 0.10583334
0.41273886 -0.030573251 7.6433125 0.13083333
0.44331211 -0.030573251 7.6433125 0.13083333
0.45859873 -0.030573251 7.6433125 0.13083333
-0.70318472 -0.015286625 7.6433125 0.13083333
-0.6878981 -0.015286625 7.6433125 0.13083333
-0.397351 -0.01589404 7.9470201 0.12583333
-0.374026 -0.015584417 7.7922082 0.12833333
-0.31168833 -0.015584417 7.7922082 0.12833333
0.207874 -0.018897636 9.4488182 0.10583334
0.48260868 -0.013043478 6.521739 0.15333334
0.49565217 -0.013043478 6.521739 0.15333334
0.28536585 -0.0073170727 3.6585364 0.27333334
0.29999998 -0.0073170727 3.6585364 0.27333334
0.30731705 -0.0073170727 3.6585364 0.27333334
0.40790513 -0.0094861658 4.743083 0.21083334
0.4173913 -0.0094861658 4.743083 0.21083334
0.42687747 -0.0094861658 4.743083 0.21083334
0.43636364 -0.0094861658 4.743083 0.21083334
-0.70318472 0 7.6433125 0.13083333
-0.6878981 0 7.6433125 0.13083333
-0.374026 0 7.7922082 0.12833333
-0.31168833 0 7.7922082 0.12833333
-0.23841061 0 7.9470201 0.12583333
0.207874 0 9.4488182 0.10583334
0.24566928 0 9.4488182 0.10583334
-0.23841061 0.01589404 7.9470201 0.12583333
0.24566928 0.018897636 9.4488182 0.10583334
0.26493508 0.015584417 7.7922082 0.12833333
-0.23841061 0.031788081 7.9470201 0.12583333
-0.20662253 0.031788081 7.9470201 0.12583333
0.26493508 0.031168833 7.7922082 0.12833333
0.28051949 0.031168833 7.7922082 0.12833333
0.29610392 0.031168833 7.7922082 0.12833333
0.26341462 0.014634145 3.6585364 0.27333334
0.27073169 0.014634145 3.6585364 0.27333334
0.27804878 0.014634145 3.6585364 0.27333334
0.28536585 0.014634145 3.6585364 0.27333334
0.29268292 0.014634145 3.6585364 0.27333334
0.4173913 0.018972332 4.743083 0.21083334
0.42687747 0.018972332 4.743083 0.21083334
-0.38216561 0.045859873 7.6433125 0.13083333
0.099310338 0.049655169 8.2758617 0.12083334
-0.39745224 0.061146501 7.6433125 0.13083333
0.066206895 0.066206895 8.2758617 0.12083334
0.11586206 0.066206895 8.2758617 0.12083334
-0.44331211 0.076433122 7.6433125 0.13083333
-0.42802548 0.076433122 7.6433125 0.13083333
-0.41273886 0.076433122 7.6433125 0.13083333
-0.39745224 0.076433122 7.6433125 0.13083333
0.27961165 0.11650485 11.650485 0.085833333
0.26341462 0.036585364 3.6585364 0.27333334
0.27073169 0.036585364 3.6585364 0.27333334
0.27804878 0.036585364 3.6585364 0.27333334
0.28536585 0.036585364 3.6585364 0.27333334
-0.67261147 0.091719747 7.6433125 0.13083333
-0.65732485 0.091719747 7.6433125 0.13083333
-0.22929937 0.091719747 7.6433125 0.13083333
0.33630574 0.091719747 7.6433125 0.13083333
0.38216561 0.091719747 7.6433125 0.13083333
-0.27515924 0.10700637 7.6433125 0.13083333
-0.25987262 0.10700637 7.6433125 0.13083333
-0.24458601 0.10700637 7.6433125 0.13083333
-0.22929937 0.10700637 7.6433125 0.13083333
-0.044171777 0.10306748 7.3619628 0.13583334
0.39745224 0.10700637 7.6433125 0.13083333
0.34105265 0.088421054 6.3157897 0.15833333
-0.65732485 0.122293 7.6433125 0.13083333
-0.64203823 0.122293 7.6433125 0.13083333
-0.6267516 0.122293 7.6433125 0.13083333
-0.61146498 0.122293 7.6433125 0.13083333
-0.36923078 0.11360946 7.1005917 0.14083333
-0.122293 0.122293 7.6433125 0.13083333
-0.10700637 0.122293 7.6433125 0.13083333
-0.091719747 0.122293 7.6433125 0.13083333
-0.076433122 0.122293 7.6433125 0.13083333
-0.044171777 0.11779141 7.3619628 0.13583334
-0.029447852 0.11779141 7.3619628 0.13583334
0.35159236 0.122293 7.6433125 0.13083333
0.36687899 0.122293 7.6433125 0.13083333
-0.41183433 0.12781066 7.1005917 0.14083333
-0.36521739 0.1173913 6.521739 0.15333334
-0.32608694 0.1173913 6.521739 0.15333334
-0.10700637 0.13757962 7.6433125 0.13083333
-0.014723926 0.13251533 7.3619628 0.13583334
0.35159236 0.13757962 7.6433125 0.13083333
0.36687899 0.13757962 7.6433125 0.13083333
0.59220785 0.14025974 7.7922082 0.12833333
0.60779226 0.14025974 7.7922082 0.12833333
0.63896108 0.14025974 7.7922082 0.12833333
0.74482757 0.14896551 8.2758617 0.12083334
-0.32608694 0.13043478 6.521739 0.15333334
-0.13757962 0.15286624 7.6433125 0.13083333
0.10909092 0.15584417 7.7922082 0.12833333
0.29793102 0.16551724 8.2758617 0.12083334
0.31448275 0.16551724 8.2758617 0.12083334
0.59220785 0.15584417 7.7922082 0.12833333
0.72827584 0.16551724 8.2758617 0.12083334
0.74482757 0.16551724 8.2758617 0.12083334
0.7613793 0.16551724 8.2758617 0.12083334
-0.36521739 0.14347826 6.521739 0.15333334
0.015584417 0.17142858 7.7922082 0.12833333
0.10700637 0.16815287 7.6433125 0.13083333
0.29793102 0.18206896 8.2758617 0.12083334
0.31448275 0.18206896 8.2758617 0.12083334
0.60779226 0.17142858 7.7922082 0.12833333
0.72827584 0.18206896 8.2758617 0.12083334
0.7613793 0.18206896 8.2758617 0.12083334
0.77793097 0.18206896 8.2758617 0.12083334
0.79448271 0.18206896 8.2758617 0.12083334
-0.65454549 0.187013 7.7922082 0.12833333
-0.122293 0.18343949 7.6433125 0.13083333
-0.10700637 0.18343949 7.6433125 0.13083333
-0.091719747 0.18343949 7.6433125 0.13083333
-0.076433122 0.18343949 7.6433125 0.13083333
-0.061146501 0.18343949 7.6433125 0.13083333
0.015584417 0.187013 7.7922082 0.12833333
0.031168833 0.187013 7.7922082 0.12833333
0.04675325 0.187013 7.7922082 0.12833333
0.077922083 0.187013 7.7922082 0.12833333
0.10700637 0.18343949 7.6433125 0.13083333
0.122293 0.18343949 7.6433125 0.13083333
0.13757962 0.18343949 7.6433125 0.13083333
0.48917201 0.18343949 7.6433125 0.13083333
0.50445861 0.18343949 7.6433125 0.13083333
0.51974523 0.18343949 7.6433125 0.13083333
0.62337667 0.187013 7.7922082 0.12833333
-0.65454549 0.20259741 7.7922082 0.12833333
0.50445861 0.19872612 7.6433125 0.13083333
-0.65454549 0.21818183 7.7922082 0.12833333
0.091719747 0.21401274 7.6433125 0.13083333
0.47388536 0.21401274 7.6433125 0.13083333
0.48917201 0.21401274 7.6433125 0.13083333
0.50445861 0.21401274 7.6433125 0.13083333
0.51974523 0.21401274 7.6433125 0.13083333
0.72827584 0.23172413 8.2758617 0.12083334
-0.18343949 0.22929937 7.6433125 0.13083333
-0.67261147 0.24458601 7.6433125 0.13083333
-0.65732485 0.24458601 7.6433125 0.13083333
-0.48311689 0.24935067 7.7922082 0.12833333
-0.46753249 0.24935067 7.7922082 0.12833333
-0.24458601 0.24458601 7.6433125 0.13083333
-0.22929937 0.24458601 7.6433125 0.13083333
-0.21401274 0.24458601 7.6433125 0.13083333
-0.19872612 0.24458601 7.6433125 0.13083333
0.45859873 0.24458601 7.6433125 0.13083333
0.47388536 0.24458601 7.6433125 0.13083333
0.48917201 0.24458601 7.6433125 0.13083333
-0.67261147 0.25987262 7.6433125 0.13083333
-0.65732485 0.25987262 7.6433125 0.13083333
-0.64203823 0.25987262 7.6433125 0.13083333
-0.6267516 0.25987262 7.6433125 0.13083333
-0.51974523 0.25987262 7.6433125 0.13083333
-0.50445861 0.25987262 7.6433125 0.13083333
-0.48917201 0.25987262 7.6433125 0.13083333
-0.47388536 0.25987262 7.6433125 0.13083333
-0.39724135 0.28137931 8.2758617 0.12083334
-0.38068965 0.28137931 8.2758617 0.12083334
-0.36413792 0.28137931 8.2758617 0.12083334
0 0.32125983 9.4488182 0.10583334
0.51974523 0.25987262 7.6433125 0.13083333
-0.6267516 0.27515924 7.6433125 0.13083333
-0.48311689 0.28051949 7.7922082 0.12833333
-0.46753249 0.28051949 7.7922082 0.12833333
-0.22929937 0.27515924 7.6433125 0.13083333
-0.21401274 0.27515924 7.6433125 0.13083333
-0.08275862 0.29793102 8.2758617 0.12083334
0.33630574 0.27515924 7.6433125 0.13083333
0.72827584 0.29793102 8.2758617 0.12083334
0.74482757 0.29793102 8.2758617 0.12083334
0.7613793 0.29793102 8.2758617 0.12083334
-0.71847135 0.29044586 7.6433125 0.13083333
-0.70318472 0.29044586 7.6433125 0.13083333
-0.6878981 0.29044586 7.6433125 0.13083333
-0.6267516 0.29044586 7.6433125 0.13083333
-0.53503186 0.29044586 7.6433125 0.13083333
-0.46753249 0.29610392 7.7922082 0.12833333
-0.41379309 0.31448275 8.2758617 0.12083334
-0.39724135 0.31448275 8.2758617 0.12083334
-0.099310338 0.31448275 8.2758617 0.12083334
-0.08275862 0.31448275 8.2758617 0.12083334
-0.066206895 0.31448275 8.2758617 0.12083334
-0.049655169 0.31448275 8.2758617 0.12083334
-0.033103447 0.31448275 8.2758617 0.12083334
0.32101911 0.29044586 7.6433125 0.13083333
0.74482757 0.31448275 8.2758617 0.12083334
-0.70318472 0.30573249 7.6433125 0.13083333
-0.08275862 0.33103448 8.2758617 0.12083334
0.32101911 0.30573249 7.6433125 0.13083333
0.35159236 0.30573249 7.6433125 0.13083333
0.36687899 0.30573249 7.6433125 0.13083333
0.39745224 0.30573249 7.6433125 0.13083333
0.36631581 0.25263157 6.3157897 0.15833333
0.45859873 0.30573249 7.6433125 0.13083333
0.48917201 0.30573249 7.6433125 0.13083333
0.50445861 0.30573249 7.6433125 0.13083333
0.51974523 0.30573249 7.6433125 0.13083333
0.72827584 0.33103448 8.2758617 0.12083334
-0.61146498 0.32101911 7.6433125 0.13083333
-0.59617835 0.32101911 7.6433125 0.13083333
-0.45194808 0.32727274 7.7922082 0.12833333
-0.21290322 0.40645158 9.6774187 0.10333334
-0.19354838 0.40645158 9.6774187 0.10333334
0.36687899 0.32101911 7.6433125 0.13083333
0.50445861 0.32101911 7.6433125 0.13083333
-0.46753249 0.34285715 7.7922082 0.12833333
-0.21290322 0.42580643 9.6774187 0.10333334
-0.19354838 0.42580643 9.6774187 0.10333334
0.19862068 0.36413792 8.2758617 0.12083334
0.21517241 0.36413792 8.2758617 0.12083334
0.40421054 0.27789474 6.3157897 0.15833333
0.74482757 0.36413792 8.2758617 0.12083334
0.7613793 0.36413792 8.2758617 0.12083334
0.77793097 0.36413792 8.2758617 0.12083334
0.79448271 0.36413792 8.2758617 0.12083334
-0.6878981 0.35159236 7.6433125 0.13083333
-0.67261147 0.35159236 7.6433125 0.13083333
-0.51428574 0.35844159 7.7922082 0.12833333
-0.49870133 0.35844159 7.7922082 0.12833333
-0.48311689 0.35844159 7.7922082 0.12833333
-0.21290322 0.44516125 9.6774187 0.10333334
0.21517241 0.38068965 8.2758617 0.12083334
0.33630574 0.35159236 7.6433125 0.13083333
0.37894738 0.29052633 6.3157897 0.15833333
0.39157897 0.29052633 6.3157897 0.15833333
0.40421054 0.29052633 6.3157897 0.15833333
0.72827584 0.38068965 8.2758617 0.12083334
-0.65732485 0.36687899 7.6433125 0.13083333
-0.64203823 0.36687899 7.6433125 0.13083333
-0.6267516 0.36687899 7.6433125 0.13083333
-0.61146498 0.36687899 7.6433125 0.13083333
-0.5656051 0.36687899 7.6433125 0.13083333
-0.21290322 0.4645161 9.6774187 0.10333334
0.19862068 0.39724135 8.2758617 0.12083334
0.21517241 0.39724135 8.2758617 0.12083334
0.23172413 0.39724135 8.2758617 0.12083334
0.7613793 0.39724135 8.2758617 0.12083334
-0.64203823 0.38216561 7.6433125 0.13083333
-0.52987015 0.38961041 7.7922082 0.12833333
0.24827585 0.41379309 8.2758617 0.12083334
0.41860464 0.3488372 6.9767442 0.14333333
0.43255815 0.3488372 6.9767442 0.14333333
0.40421054 0.31578949 6.3157897 0.15833333
0.4604651 0.3488372 6.9767442 0.14333333
0.4294737 0.31578949 6.3157897 0.15833333
-0.64203823 0.39745224 7.6433125 0.13083333
-0.57662338 0.40519482 7.7922082 0.12833333
-0.55031848 0.39745224 7.6433125 0.13083333
-0.42802548 0.41273886 7.6433125 0.13083333
-0.41273886 0.41273886 7.6433125 0.13083333
-0.39745224 0.41273886 7.6433125 0.13083333
-0.25030673 0.39754599 7.3619628 0.13583334
-0.23558281 0.39754599 7.3619628 0.13583334
0 0.41273886 7.6433125 0.13083333
0.015286625 0.41273886 7.6433125 0.13083333
0.030573251 0.41273886 7.6433125 0.13083333
0.045859873 0.41273886 7.6433125 0.13083333
0.40588236 0.47647059 8.8235292 0.11333334
0.44651163 0.37674418 6.9767442 0.14333333
-0.57662338 0.43636367 7.7922082 0.12833333
-0.55031848 0.42802548 7.6433125 0.13083333
-0.54545456 0.43636367 7.7922082 0.12833333
-0.50445861 0.42802548 7.6433125 0.13083333
-0.39745224 0.42802548 7.6433125 0.13083333
-0.27975458 0.41226992 7.3619628 0.13583334
-0.7218045 0.52330828 9.0225563 0.11083333
-0.29447851 0.42699385 7.3619628 0.13583334
0.030573251 0.44331211 7.6433125 0.13083333
0.30236217 0.54803145 9.4488182 0.10583334
0.42352942 0.51176471 8.8235292 0.11333334
0.44117647 0.51176471 8.8235292 0.11333334
0.45882353 0.51176471 8.8235292 0.11333334
0.47647059 0.51176471 8.8235292 0.11333334
-0.75789475 0.5413534 9.0225563 0.11083333
-0.73984963 0.5413534 9.0225563 0.11083333
-0.7218045 0.5413534 9.0225563 0.11083333
-0.55031848 0.45859873 7.6433125 0.13083333
-0.53503186 0.45859873 7.6433125 0.13083333
-0.51974523 0.45859873 7.6433125 0.13083333
-0.29447851 0.44171777 7.3619628 0.13583334
-0.26503065 0.44171777 7.3619628 0.13583334
-0.25030673 0.44171777 7.3619628 0.13583334
0.045859873 0.45859873 7.6433125 0.13083333
0.28346455 0.5669291 9.4488182 0.10583334
0.30236217 0.5669291 9.4488182 0.10583334
0.32125983 0.5669291 9.4488182 0.10583334
0.34015745 0.5669291 9.4488182 0.10583334
0.44117647 0.52941173 8.8235292 0.11333334
