# .PCD v0.7 - Point Cloud Data file format
VERSION 0.7
FIELDS x y z intensity
SIZE 4 4 4 4
TYPE F F F F
COUNT 1 1 1 1
WIDTH 412
HEIGHT 1
VIEWPOINT 0 0 0 1 0 0 0
POINTS 412
DATA ascii
-0.45619836 -0.59504133 9.9173555 0.10083333
-0.43636364 -0.59504133 9.9173555 0.10083333
-0.41652894 -0.59504133 9.9173555 0.10083333
-0.21818182 -0.59504133 9.9173555 0.10083333
-0.45619836 -0.57520664 9.9173555 0.10083333
-0.19834711 -0.57520664 9.9173555 0.10083333
-0.17851239 -0.57520664 9.9173555 0.10083333
-0.15867768 -0.57520664 9.9173555 0.10083333
0.63471073 -0.57520664 9.9173555 0.10083333
0.65454549 -0.57520664 9.9173555 0.10083333
0.69421488 -0.57520664 9.9173555 0.10083333
0.71404958 -0.57520664 9.9173555 0.10083333
0.75371903 -0.57520664 9.9173555 0.10083333
0.28119889 -0.18964577 3.2697546 0.30583334
0.28773841 -0.18964577 3.2697546 0.30583334
-0.45619836 -0.55537188 9.9173555 0.10083333
-0.21818182 -0.55537188 9.9173555 0.10083333
0.59504133 -0.55537188 9.9173555 0.10083333
0.61487603 -0.55537188 9.9173555 0.10083333
0.71404958 -0.55537188 9.9173555 0.10083333
0.75371903 -0.55537188 9.9173555 0.10083333
0.28119889 -0.18310626 3.2697546 0.30583334
0.28773841 -0.18310626 3.2697546 0.30583334
-0.45619836 -0.53553718 9.9173555 0.10083333
-0.23801653 -0.53553718 9.9173555 0.10083333
-0.15867768 -0.53553718 9.9173555 0.10083333
-0.45619836 -0.51570249 9.9173555 0.10083333
-0.23801653 -0.51570249 9.9173555 0.10083333
0.023414634 -0.30439025 5.8536587 0.17083333
0.032286994 -0.27982062 5.381166 0.18583333
0.043049328 -0.27982062 5.381166 0.18583333
0.053811658 -0.27982062 5.381166 0.18583333
0.064573988 -0.27982062 5.381166 0.18583333
0.51570249 -0.51570249 9.9173555 0.10083333
-0.47603306 -0.49586779 9.9173555 0.10083333
0.011707317 -0.29268295 5.8536587 0.17083333
0.51570249 -0.49586779 9.9173555 0.10083333
0.043049328 -0.25829595 5.381166 0.18583333
0.058536585 -0.28097561 5.8536587 0.17083333
0.13757962 -0.36687899 7.6433125 0.13083333
0.15286624 -0.36687899 7.6433125 0.13083333
0.49586779 -0.47603306 9.9173555 0.10083333
0.51570249 -0.47603306 9.9173555 0.10083333
0.6857143 -0.4330827 9.0225563 0.11083333
0.70375937 -0.4330827 9.0225563 0.11083333
-0.81322318 -0.45619836 9.9173555 0.10083333
-0.51570249 -0.45619836 9.9173555 0.10083333
-0.49586779 -0.45619836 9.9173555 0.10083333
0.53553718 -0.45619836 9.9173555 0.10083333
0.55537188 -0.45619836 9.9173555 0.10083333
-0.83305788 -0.43636364 9.9173555 0.10083333
-0.81322318 -0.43636364 9.9173555 0.10083333
-0.79338843 -0.43636364 9.9173555 0.10083333
-0.53553718 -0.43636364 9.9173555 0.10083333
-0.51570249 -0.43636364 9.9173555 0.10083333
0.122293 -0.33630574 7.6433125 0.13083333
-0.83305788 -0.41652894 9.9173555 0.10083333
0.122293 -0.32101911 7.6433125 0.13083333
-0.85289258 -0.39669421 9.9173555 0.10083333
-0.83305788 -0.39669421 9.9173555 0.10083333
-0.31735536 -0.39669421 9.9173555 0.10083333
-0.29752067 -0.39669421 9.9173555 0.10083333
-0.35702479 -0.37685952 9.9173555 0.10083333
-0.12203389 -0.38644066 10.169491 0.098333344
0.53038675 -0.25193369 6.6298342 0.15083334
-0.61487603 -0.35702479 9.9173555 0.10083333
-0.59504133 -0.35702479 9.9173555 0.10083333
-0.57520664 -0.35702479 9.9173555 0.10083333
-0.55537188 -0.35702479 9.9173555 0.10083333
-0.31735536 -0.35702479 9.9173555 0.10083333
-0.12203389 -0.36610168 10.169491 0.098333344
0.51891887 -0.29189187 8.1081076 0.12333334
0.53513509 -0.29189187 8.1081076 0.12333334
0.55135131 -0.29189187 8.1081076 0.12333334
-0.57520664 -0.33719009 9.9173555 0.10083333
-0.53553718 -0.33719009 9.9173555 0.10083333
-0.12203389 -0.3457627 10.169491 0.098333344
-0.10169491 -0.3457627 10.169491 0.098333344
-0.01983471 -0.31735536 9.9173555 0.10083333
0 -0.31735536 9.9173555 0.10083333
0.01983471 -0.31735536 9.9173555 0.10083333
0.039669421 -0.31735536 9.9173555 0.10083333
0.25829595 -0.17219731 5.381166 0.18583333
0.26905829 -0.17219731 5.381166 0.18583333
0.27982062 -0.17219731 5.381166 0.18583333
0.29058295 -0.17219731 5.381166 0.18583333
0.30134529 -0.17219731 5.381166 0.18583333
0.31210762 -0.17219731 5.381166 0.18583333
0.32286996 -0.17219731 5.381166 0.18583333
0.51891887 -0.25945944 8.1081076 0.12333334
0.53513509 -0.25945944 8.1081076 0.12333334
0.45082873 -0.21215469 6.6298342 0.15083334
0.49060774 -0.21215469 6.6298342 0.15083334
-0.87272727 -0.29752067 9.9173555 0.10083333
-0.33719009 -0.29752067 9.9173555 0.10083333
0.01983471 -0.29752067 9.9173555 0.10083333
0.039669421 -0.29752067 9.9173555 0.10083333
0.059504133 -0.29752067 9.9173555 0.10083333
0.85289258 -0.29752067 9.9173555 0.10083333
-0.58064514 -0.27096772 9.6774187 0.10333334
-0.31735536 -0.27768594 9.9173555 0.10083333
-0.29752067 -0.27768594 9.9173555 0.10083333
0.45082873 -0.18563536 6.6298342 0.15083334
0.46408838 -0.18563536 6.6298342 0.15083334
0.47734806 -0.18563536 6.6298342 0.15083334
0.87272727 -0.27768594 9.9173555 0.10083333
0.89256197 -0.27768594 9.9173555 0.10083333
-0.87272727 -0.25785124 9.9173555 0.10083333
0.46408838 -0.17237569 6.6298342 0.15083334
0.89256197 -0.25785124 9.9173555 0.10083333
-0.87272727 -0.23801653 9.9173555 0.10083333
-0.59548873 -0.21654135 9.0225563 0.11083333
-0.58064514 -0.23225805 9.6774187 0.10333334
-0.56129026 -0.23225805 9.6774187 0.10333334
-0.54193544 -0.23225805 9.6774187 0.10333334
0.41652894 -0.23801653 9.9173555 0.10083333
-0.91239673 -0.21818182 9.9173555 0.10083333
-0.89256197 -0.21818182 9.9173555 0.10083333
-0.87272727 -0.21818182 9.9173555 0.10083333
-0.85289258 -0.21818182 9.9173555 0.10083333
-0.23801653 -0.19834711 9.9173555 0.10083333
-0.21818182 -0.19834711 9.9173555 0.10083333
0.039669421 -0.19834711 9.9173555 0.10083333
0.59999996 -0.19354838 9.6774187 0.10333334
0.61935478 -0.19354838 9.6774187 0.10333334
0.63870966 -0.19354838 9.6774187 0.10333334
0.65806448 -0.19354838 9.6774187 0.10333334
-0.85289258 -0.17851239 9.9173555 0.10083333
0.01983471 -0.17851239 9.9173555 0.10083333
0.039669421 -0.17851239 9.9173555 0.10083333
-0.87272727 -0.15867768 9.9173555 0.10083333
-0.85289258 -0.15867768 9.9173555 0.10083333
-0.51570249 -0.15867768 9.9173555 0.10083333
-0.49586779 -0.15867768 9.9173555 0.10083333
-0.23801653 -0.15867768 9.9173555 0.10083333
0.01983471 -0.15867768 9.9173555 0.10083333
0.23801653 -0.15867768 9.9173555 0.10083333
-0.87272727 -0.13884297 9.9173555 0.10083333
-0.71404958 -0.13884297 9.9173555 0.10083333
-0.49586779 -0.13884297 9.9173555 0.10083333
-0.27768594 -0.13884297 9.9173555 0.10083333
-0.25785124 -0.13884297 9.9173555 0.10083333
-0.23801653 -0.13884297 9.9173555 0.10083333
0 -0.13884297 9.9173555 0.10083333
0.21818182 -0.13884297 9.9173555 0.10083333
0.23801653 -0.13884297 9.9173555 0.10083333
0.25785124 -0.13884297 9.9173555 0.10083333
-0.91239673 -0.11900827 9.9173555 0.10083333
-0.89256197 -0.11900827 9.9173555 0.10083333
-0.71404958 -0.11900827 9.9173555 0.10083333
-0.69421488 -0.11900827 9.9173555 0.10083333
-0.49586779 -0.11900827 9.9173555 0.10083333
-0.01983471 -0.11900827 9.9173555 0.10083333
-0.73388433 -0.099173553 9.9173555 0.10083333
-0.71404958 -0.099173553 9.9173555 0.10083333
-0.01983471 -0.099173553 9.9173555 0.10083333
0 -0.099173553 9.9173555 0.10083333
0.40519482 -0.077922083 7.7922082 0.12833333
0.45194808 -0.077922083 7.7922082 0.12833333
0.63471073 -0.099173553 9.9173555 0.10083333
0.67438018 -0.099173553 9.9173555 0.10083333
-0.73388433 -0.079338841 9.9173555 0.10083333
0 -0.079338841 9.9173555 0.10083333
0.01983471 -0.079338841 9.9173555 0.10083333
0.45194808 -0.062337667 7.7922082 0.12833333
0.63471073 -0.079338841 9.9173555 0.10083333
0.36681223 -0.0419214 5.2401748 0.19083333
0.40947863 -0.045497626 5.6872034 0.17583334
0.42085305 -0.045497626 5.6872034 0.17583334
0.39825329 -0.0419214 5.2401748 0.19083333
0.40873364 -0.0419214 5.2401748 0.19083333
0.44859809 -0.044859812 5.6074762 0.17833334
0.45981306 -0.044859812 5.6074762 0.17833334
-0.77355373 -0.059504133 9.9173555 0.10083333
-0.75371903 -0.059504133 9.9173555 0.10083333
-0.49586779 -0.059504133 9.9173555 0.10083333
-0.47603306 -0.059504133 9.9173555 0.10083333
-0.18688524 -0.029508196 4.9180326 0.20333333
-0.23801653 -0.059504133 9.9173555 0.10083333
-0.93559313 -0.040677965 10.169491 0.098333344
-0.75371903 -0.039669421 9.9173555 0.10083333
-0.49586779 -0.039669421 9.9173555 0.10083333
-0.1967213 -0.019672131 4.9180326 0.20333333
-0.18688524 -0.019672131 4.9180326 0.20333333
-0.93559313 -0.020338982 10.169491 0.098333344
-0.49586779 -0.01983471 9.9173555 0.10083333
-0.47603306 -0.01983471 9.9173555 0.10083333
-0.1967213 -0.0098360656 4.9180326 0.20333333
-0.18688524 -0.0098360656 4.9180326 0.20333333
-0.27768594 -0.01983471 9.9173555 0.10083333
-0.25785124 -0.01983471 9.9173555 0.10083333
-0.23801653 -0.01983471 9.9173555 0.10083333
0.42085305 -0.011374407 5.6872034 0.17583334
0.39825329 -0.01048035 5.2401748 0.19083333
0.44360188 -0.011374407 5.6872034 0.17583334
0.41921398 -0.01048035 5.2401748 0.19083333
0.42969432 -0.01048035 5.2401748 0.19083333
0.471028 -0.011214953 5.6074762 0.17833334
0.48224294 -0.011214953 5.6074762 0.17833334
0.49345791 -0.011214953 5.6074762 0.17833334
0.50467288 -0.011214953 5.6074762 0.17833334
0.5158878 -0.011214953 5.6074762 0.17833334
-0.93559313 0 10.169491 0.098333344
-0.91525418 0 10.169491 0.098333344
-0.49586779 0 9.9173555 0.10083333
-0.47603306 0 9.9173555 0.10083333
0.27768594 0 9.9173555 0.10083333
-0.49586779 0.01983471 9.9173555 0.10083333
-0.29752067 0.01983471 9.9173555 0.10083333
0.25785124 0.01983471 9.9173555 0.10083333
0.22541437 0.013259668 6.6298342 0.15083334
-0.29752067 0.039669421 9.9173555 0.10083333
-0.25785124 0.039669421 9.9173555 0.10083333
0.27768594 0.039669421 9.9173555 0.10083333
0.29752067 0.039669421 9.9173555 0.10083333
0.31735536 0.039669421 9.9173555 0.10083333
0.23867403 0.026519336 6.6298342 0.15083334
0.25193369 0.026519336 6.6298342 0.15083334
0.46736842 0.025263159 6.3157897 0.15833333
0.48000002 0.025263159 6.3157897 0.15833333
0.49263158 0.025263159 6.3157897 0.15833333
0.50526315 0.025263159 6.3157897 0.15833333
0.50467288 0.022429906 5.6074762 0.17833334
-0.51570249 0.059504133 9.9173555 0.10083333
-0.49586779 0.059504133 9.9173555 0.10083333
-0.29752067 0.059504133 9.9173555 0.10083333
-0.51570249 0.079338841 9.9173555 0.10083333
0.12203389 0.081355929 10.169491 0.098333344
0.23867403 0.053038672 6.6298342 0.15083334
0.25193369 0.053038672 6.6298342 0.15083334
0.26519337 0.053038672 6.6298342 0.15083334
-0.55537188 0.099173553 9.9173555 0.10083333
-0.53553718 0.099173553 9.9173555 0.10083333
-0.51570249 0.099173553 9.9173555 0.10083333
-0.47603306 0.099173553 9.9173555 0.10083333
0.48000002 0.063157894 6.3157897 0.15833333
-0.85289258 0.11900827 9.9173555 0.10083333
0.36556292 0.095364243 7.9470201 0.12583333
0.38145697 0.095364243 7.9470201 0.12583333
0.397351 0.095364243 7.9470201 0.12583333
0.55537188 0.11900827 9.9173555 0.10083333
0.55537188 0.13884297 9.9173555 0.10083333
-0.85289258 0.15867768 9.9173555 0.10083333
-0.83305788 0.15867768 9.9173555 0.10083333
-0.81322318 0.15867768 9.9173555 0.10083333
-0.79338843 0.15867768 9.9173555 0.10083333
-0.49586779 0.15867768 9.9173555 0.10083333
-0.47603306 0.15867768 9.9173555 0.10083333
-0.45619836 0.15867768 9.9173555 0.10083333
0.44516125 0.1548387 9.6774187 0.10333334
0.38145697 0.12715232 7.9470201 0.12583333
-0.83305788 0.17851239 9.9173555 0.10083333
-0.52450335 0.14304636 7.9470201 0.12583333
-0.50860929 0.14304636 7.9470201 0.12583333
-0.49271524 0.14304636 7.9470201 0.12583333
-0.47682121 0.14304636 7.9470201 0.12583333
-0.49586779 0.17851239 9.9173555 0.10083333
0.31735536 0.17851239 9.9173555 0.10083333
-0.51570249 0.19834711 9.9173555 0.10083333
-0.49586779 0.19834711 9.9173555 0.10083333
0 0.19354838 9.6774187 0.10333334
0.89256197 0.19834711 9.9173555 0.10083333
0.91239673 0.19834711 9.9173555 0.10083333
0.019354837 0.21290322 9.6774187 0.10333334
0.87272727 0.21818182 9.9173555 0.10083333
0.89256197 0.21818182 9.9173555 0.10083333
0.91239673 0.21818182 9.9173555 0.10083333
-0.019354837 0.23225805 9.6774187 0.10333334
0.019354837 0.23225805 9.6774187 0.10333334
0.039669421 0.23801653 9.9173555 0.10083333
0.059504133 0.23801653 9.9173555 0.10083333
0.079338841 0.23801653 9.9173555 0.10083333
0.1255814 0.16744186 6.9767442 0.14333333
0.13953489 0.16744186 6.9767442 0.14333333
0.44494382 0.16179775 6.7415729 0.14833334
0.45842695 0.16179775 6.7415729 0.14833334
0.48539326 0.16179775 6.7415729 0.14833334
-0.83305788 0.25785124 9.9173555 0.10083333
0.01983471 0.25785124 9.9173555 0.10083333
-0.83305788 0.27768594 9.9173555 0.10083333
0.079338841 0.27768594 9.9173555 0.10083333
0.1255814 0.19534884 6.9767442 0.14333333
0.13953489 0.19534884 6.9767442 0.14333333
0.49870133 0.21818183 7.7922082 0.12833333
0.44494382 0.18876404 6.7415729 0.14833334
0.45842695 0.18876404 6.7415729 0.14833334
0.85289258 0.27768594 9.9173555 0.10083333
0.87272727 0.27768594 9.9173555 0.10083333
0.89256197 0.27768594 9.9173555 0.10083333
0.91239673 0.27768594 9.9173555 0.10083333
-0.83305788 0.29752067 9.9173555 0.10083333
0 0.29752067 9.9173555 0.10083333
0.87272727 0.29752067 9.9173555 0.10083333
-0.85289258 0.31735536 9.9173555 0.10083333
-0.83305788 0.31735536 9.9173555 0.10083333
-0.61487603 0.31735536 9.9173555 0.10083333
-0.59504133 0.31735536 9.9173555 0.10083333
-0.30198675 0.25430465 7.9470201 0.12583333
-0.29032257 0.30967739 9.6774187 0.10333334
-0.27096772 0.30967739 9.6774187 0.10333334
-0.25161287 0.30967739 9.6774187 0.10333334
-0.11900827 0.31735536 9.9173555 0.10083333
0.46779656 0.32542372 10.169491 0.098333344
-0.83305788 0.33719009 9.9173555 0.10083333
-0.65454549 0.33719009 9.9173555 0.10083333
-0.63471073 0.33719009 9.9173555 0.10083333
-0.61487603 0.33719009 9.9173555 0.10083333
-0.47603306 0.33719009 9.9173555 0.10083333
-0.11900827 0.33719009 9.9173555 0.10083333
0 0.33719009 9.9173555 0.10083333
0.01983471 0.33719009 9.9173555 0.10083333
-0.61487603 0.35702479 9.9173555 0.10083333
-0.59504133 0.35702479 9.9173555 0.10083333
-0.29032257 0.34838706 9.6774187 0.10333334
-0.27096772 0.34838706 9.6774187 0.10333334
-0.099173553 0.35702479 9.9173555 0.10083333
0 0.35702479 9.9173555 0.10083333
0.01983471 0.35702479 9.9173555 0.10083333
0.44745758 0.36610168 10.169491 0.098333344
-0.67438018 0.37685952 9.9173555 0.10083333
-0.59504133 0.37685952 9.9173555 0.10083333
-0.11900827 0.37685952 9.9173555 0.10083333
-0.099173553 0.37685952 9.9173555 0.10083333
-0.079338841 0.37685952 9.9173555 0.10083333
-0.059504133 0.37685952 9.9173555 0.10083333
-0.039669421 0.37685952 9.9173555 0.10083333
0.40677965 0.38644066 10.169491 0.098333344
0.4271186 0.38644066 10.169491 0.098333344
-0.59504133 0.39669421 9.9173555 0.10083333
-0.099173553 0.39669421 9.9173555 0.10083333
0.4271186 0.40677965 10.169491 0.098333344
0.43636364 0.39669421 9.9173555 0.10083333
0.45619836 0.39669421 9.9173555 0.10083333
0.47603306 0.39669421 9.9173555 0.10083333
0.27226889 0.20168066 5.0420165 0.19833334
0.29243696 0.20168066 5.0420165 0.19833334
0.89256197 0.39669421 9.9173555 0.10083333
-0.57520664 0.41652894 9.9173555 0.10083333
-0.22372879 0.4271186 10.169491 0.098333344
-0.20338982 0.4271186 10.169491 0.098333344
0.47603306 0.41652894 9.9173555 0.10083333
-0.53553718 0.43636364 9.9173555 0.10083333
-0.51570249 0.43636364 9.9173555 0.10083333
-0.22372879 0.44745758 10.169491 0.098333344
0.43885711 0.30171427 6.8571424 0.14583334
0.89256197 0.43636364 9.9173555 0.10083333
0.91239673 0.43636364 9.9173555 0.10083333
-0.89491516 0.46779656 10.169491 0.098333344
-0.22372879 0.46779656 10.169491 0.098333344
0.26218486 0.23193276 5.0420165 0.19833334
0.28235292 0.23193276 5.0420165 0.19833334
0.43885711 0.31542856 6.8571424 0.14583334
0.45257139 0.31542856 6.8571424 0.14583334
-0.87457621 0.48813555 10.169491 0.098333344
-0.8542372 0.48813555 10.169491 0.098333344
-0.83389825 0.48813555 10.169491 0.098333344
-0.81355929 0.48813555 10.169491 0.098333344
-0.79322028 0.48813555 10.169491 0.098333344
-0.77288133 0.48813555 10.169491 0.098333344
-0.75254232 0.48813555 10.169491 0.098333344
-0.73220336 0.48813555 10.169491 0.098333344
-0.53553718 0.47603306 9.9173555 0.10083333
-0.51570249 0.47603306 9.9173555 0.10083333
0.21176471 0.42352942 8.8235292 0.11333334
0.22941177 0.42352942 8.8235292 0.11333334
-0.87457621 0.50847453 10.169491 0.098333344
-0.8542372 0.50847453 10.169491 0.098333344
0 0.49586779 9.9173555 0.10083333
0.3721925 0.32085562 6.4171124 0.15583333
0.38502675 0.32085562 6.4171124 0.15583333
0.43885711 0.34285712 6.8571424 0.14583334
0.45257139 0.34285712 6.8571424 0.14583334
0.46628568 0.34285712 6.8571424 0.14583334
-0.73388433 0.51570249 9.9173555 0.10083333
-0.49586779 0.51570249 9.9173555 0.10083333
0 0.51570249 9.9173555 0.10083333
-0.55537188 0.53553718 9.9173555 0.10083333
-0.53553718 0.53553718 9.9173555 0.10083333
-0.51570249 0.53553718 9.9173555 0.10083333
-0.33719009 0.53553718 9.9173555 0.10083333
-0.31735536 0.53553718 9.9173555 0.10083333
-0.29752067 0.53553718 9.9173555 0.10083333
0 0.53553718 9.9173555 0.10083333
0.01983471 0.53553718 9.9173555 0.10083333
0.039669421 0.53553718 9.9173555 0.10083333
0.059504133 0.53553718 9.9173555 0.10083333
-0.75371903 0.55537188 9.9173555 0.10083333
-0.73388433 0.55537188 9.9173555 0.10083333
-0.71404958 0.55537188 9.9173555 0.10083333
-0.69421488 0.55537188 9.9173555 0.10083333
-0.67438018 0.55537188 9.9173555 0.10083333
-0.51570249 0.55537188 9.9173555 0.10083333
-0.49586779 0.55537188 9.9173555 0.10083333
-0.37685952 0.55537188 9.9173555 0.10083333
0.01983471 0.55537188 9.9173555 0.10083333
0.31735536 0.55537188 9.9173555 0.10083333
0.33719009 0.55537188 9.9173555 0.10083333
-0.79338843 0.57520664 9.9173555 0.10083333
-0.69421488 0.57520664 9.9173555 0.10083333
0.039669421 0.57520664 9.9173555 0.10083333
0.31735536 0.57520664 9.9173555 0.10083333
-0.69421488 0.59504133 9.9173555 0.10083333
-0.67438018 0.59504133 9.9173555 0.10083333
-0.37685952 0.59504133 9.9173555 0.10083333
-0.35702479 0.59504133 9.9173555 0.10083333
0.27768594 0.59504133 9.9173555 0.10083333
0.31735536 0.59504133 9.9173555 0.10083333
0.33719009 0.59504133 9.9173555 0.10083333
0.56470591 0.38502675 6.4171124 0.15583333
0.5775401 0.38502675 6.4171124 0.15583333
0.59037435 0.38502675 6.4171124 0.15583333
0.60320854 0.38502675 6.4171124 0.15583333
