# .PCD v0.7 - Point Cloud Data file format
VERSION 0.7
FIELDS x y z intensity
SIZE 4 4 4 4
TYPE F F F F
COUNT 1 1 1 1
WIDTH 393
HEIGHT 1
VIEWPOINT 0 0 0 1 0 0 0
POINTS 393
DATA ascii
0.10588235 -0.52941173 8.8235292 0.11333334
0.12352941 -0.52941173 8.8235292 0.11333334
-0.6289655 -0.47999999 8.2758617 0.12083334
0.61935478 -0.56129026 9.6774187 0.10333334
0.65806448 -0.56129026 9.6774187 0.10333334
0.6289655 -0.47999999 8.2758617 0.12083334
0.64551723 -0.47999999 8.2758617 0.12083334
0.66206896 -0.47999999 8.2758617 0.12083334
0.67862064 -0.47999999 8.2758617 0.12083334
0.6289655 -0.46344826 8.2758617 0.12083334
-0.019672131 -0.25573769 4.9180326 0.20333333
0 -0.25573769 4.9180326 0.20333333
0.0098360656 -0.25573769 4.9180326 0.20333333
0.016608996 -0.21591695 4.1522489 0.24083334
0.024913494 -0.21591695 4.1522489 0.24083334
0.033217993 -0.21591695 4.1522489 0.24083334
0.041522488 -0.21591695 4.1522489 0.24083334
0.49133855 -0.49133855 9.4488182 0.10583334
0.0098360656 -0.24590163 4.9180326 0.20333333
0.4724409 -0.4724409 9.4488182 0.10583334
0.49133855 -0.4724409 9.4488182 0.10583334
-0.36610168 -0.48813555 10.169491 0.098333344
-0.3457627 -0.48813555 10.169491 0.098333344
0.053097345 -0.25486726 5.3097343 0.18833333
0.063716814 -0.25486726 5.3097343 0.18833333
0.074336283 -0.25486726 5.3097343 0.18833333
0.084955752 -0.25486726 5.3097343 0.18833333
0.4724409 -0.45354328 9.4488182 0.10583334
0.5774436 -0.4330827 9.0225563 0.11083333
0.59548873 -0.4330827 9.0225563 0.11083333
0.59586203 -0.39724135 8.2758617 0.12083334
0.61241376 -0.39724135 8.2758617 0.12083334
0.6289655 -0.39724135 8.2758617 0.12083334
0.64551723 -0.39724135 8.2758617 0.12083334
0.66206896 -0.39724135 8.2758617 0.12083334
0.67862064 -0.39724135 8.2758617 0.12083334
-0.38644066 -0.46779656 10.169491 0.098333344
-0.36610168 -0.46779656 10.169491 0.098333344
0.5102362 -0.43464562 9.4488182 0.10583334
0.61487603 -0.45619836 9.9173555 0.10083333
0.5774436 -0.4150376 9.0225563 0.11083333
0.59548873 -0.4150376 9.0225563 0.11083333
0.64551723 -0.38068965 8.2758617 0.12083334
-0.8542372 -0.44745758 10.169491 0.098333344
-0.36610168 -0.44745758 10.169491 0.098333344
0.084955752 -0.23362832 5.3097343 0.18833333
-0.8542372 -0.4271186 10.169491 0.098333344
0.084955752 -0.22300884 5.3097343 0.18833333
0.59586203 -0.34758618 8.2758617 0.12083334
-0.87457621 -0.40677965 10.169491 0.098333344
-0.8542372 -0.40677965 10.169491 0.098333344
0.50869566 -0.24782608 6.521739 0.15333334
0.52173913 -0.24782608 6.521739 0.15333334
0.53478259 -0.24782608 6.521739 0.15333334
0.54782605 -0.24782608 6.521739 0.15333334
0.56086957 -0.24782608 6.521739 0.15333334
-0.39292035 -0.19115044 5.3097343 0.18833333
-0.38230088 -0.19115044 5.3097343 0.18833333
-0.37168139 -0.19115044 5.3097343 0.18833333
-0.35044247 -0.19115044 5.3097343 0.18833333
-0.55537188 -0.35702479 9.9173555 0.10083333
0.039130434 -0.23478261 6.521739 0.15333334
0.052173913 -0.23478261 6.521739 0.15333334
0.43756905 -0.23867403 6.6298342 0.15083334
0.38130838 -0.20186915 5.6074762 0.17833334
0.46408838 -0.23867403 6.6298342 0.15083334
0.47734806 -0.23867403 6.6298342 0.15083334
0.33644858 -0.19065419 5.6074762 0.17833334
0.83305788 -0.33719009 9.9173555 0.10083333
0 -0.20869565 6.521739 0.15333334
0.013043478 -0.20869565 6.521739 0.15333334
0.026086956 -0.20869565 6.521739 0.15333334
0.039130434 -0.20869565 6.521739 0.15333334
0.31401867 -0.17943925 5.6074762 0.17833334
0.33644858 -0.17943925 5.6074762 0.17833334
0.34766352 -0.17943925 5.6074762 0.17833334
0.50860929 -0.25430465 7.9470201 0.12583333
0.52450335 -0.25430465 7.9470201 0.12583333
0.38130838 -0.17943925 5.6074762 0.17833334
0.35294116 -0.16134453 5.0420165 0.19833334
0.36302519 -0.16134453 5.0420165 0.19833334
0.37310922 -0.16134453 5.0420165 0.19833334
0.83305788 -0.31735536 9.9173555 0.10083333
0.85289258 -0.31735536 9.9173555 0.10083333
-0.32903224 -0.29032257 9.6774187 0.10333334
-0.30967739 -0.29032257 9.6774187 0.10333334
0.026086956 -0.19565217 6.521739 0.15333334
0.039130434 -0.19565217 6.521739 0.15333334
0.85289258 -0.29752067 9.9173555 0.10083333
-0.34838706 -0.27096772 9.6774187 0.10333334
-0.28137931 -0.23172413 8.2758617 0.12083334
-0.30967739 -0.27096772 9.6774187 0.10333334
0.50860929 -0.22251657 7.9470201 0.12583333
0.52450335 -0.22251657 7.9470201 0.12583333
0.33442622 -0.13770491 4.9180326 0.20333333
0.34426227 -0.13770491 4.9180326 0.20333333
0.36302519 -0.14117646 5.0420165 0.19833334
0.37310922 -0.14117646 5.0420165 0.19833334
0.87272727 -0.27768594 9.9173555 0.10083333
0.89256197 -0.27768594 9.9173555 0.10083333
0.91239673 -0.27768594 9.9173555 0.10083333
0.27845302 -0.17237569 6.6298342 0.15083334
0.2917127 -0.17237569 6.6298342 0.15083334
0.30497238 -0.17237569 6.6298342 0.15083334
0.31823203 -0.17237569 6.6298342 0.15083334
0.34426227 -0.12786885 4.9180326 0.20333333
-0.65611511 -0.20719425 8.6330938 0.11583333
-0.63884896 -0.20719425 8.6330938 0.11583333
-0.62158275 -0.20719425 8.6330938 0.11583333
0.25193369 -0.15911601 6.6298342 0.15083334
0.39669421 -0.23801653 9.9173555 0.10083333
0.27845302 -0.15911601 6.6298342 0.15083334
0.30491802 -0.11803278 4.9180326 0.20333333
-0.65611511 -0.17266187 8.6330938 0.11583333
-0.24406777 -0.20338982 10.169491 0.098333344
-0.22372879 -0.20338982 10.169491 0.098333344
0.039669421 -0.19834711 9.9173555 0.10083333
0.39669421 -0.19834711 9.9173555 0.10083333
-0.87457621 -0.18305084 10.169491 0.098333344
0.01983471 -0.17851239 9.9173555 0.10083333
0.039669421 -0.17851239 9.9173555 0.10083333
0.39669421 -0.17851239 9.9173555 0.10083333
-0.89491516 -0.16271186 10.169491 0.098333344
-0.87457621 -0.16271186 10.169491 0.098333344
0.01983471 -0.15867768 9.9173555 0.10083333
0.16179775 -0.10786516 6.7415729 0.14833334
0.37685952 -0.15867768 9.9173555 0.10083333
0.41652894 -0.15867768 9.9173555 0.10083333
0.43636364 -0.15867768 9.9173555 0.10083333
-0.89491516 -0.14237288 10.169491 0.098333344
-0.23172413 -0.11586206 8.2758617 0.12083334
-0.21517241 -0.11586206 8.2758617 0.12083334
-0.19862068 -0.11586206 8.2758617 0.12083334
0.16179775 -0.094382018 6.7415729 0.14833334
0.41652894 -0.13884297 9.9173555 0.10083333
0.43636364 -0.13884297 9.9173555 0.10083333
-0.93559313 -0.12203389 10.169491 0.098333344
-0.91525418 -0.12203389 10.169491 0.098333344
-0.21517241 -0.099310338 8.2758617 0.12083334
0.85039365 -0.11338582 9.4488182 0.10583334
-0.93559313 -0.10169491 10.169491 0.098333344
-0.53493977 -0.072289154 7.2289157 0.13833334
0.57520664 -0.099173553 9.9173555 0.10083333
0.67438018 -0.099173553 9.9173555 0.10083333
0.69421488 -0.099173553 9.9173555 0.10083333
-0.93559313 -0.081355929 10.169491 0.098333344
-0.53493977 -0.057831325 7.2289157 0.13833334
0.57520664 -0.079338841 9.9173555 0.10083333
0.67438018 -0.079338841 9.9173555 0.10083333
0.69421488 -0.079338841 9.9173555 0.10083333
0.71404958 -0.079338841 9.9173555 0.10083333
0.73388433 -0.079338841 9.9173555 0.10083333
-0.67338133 -0.051798563 8.6330938 0.11583333
-0.54939759 -0.043373495 7.2289157 0.13833334
-0.50602412 -0.043373495 7.2289157 0.13833334
-0.53553718 -0.059504133 9.9173555 0.10083333
-0.51570249 -0.059504133 9.9173555 0.10083333
-0.49586779 -0.059504133 9.9173555 0.10083333
-0.47603306 -0.059504133 9.9173555 0.10083333
0.57520664 -0.059504133 9.9173555 0.10083333
-0.69064748 -0.034532376 8.6330938 0.11583333
-0.67338133 -0.034532376 8.6330938 0.11583333
-0.65611511 -0.034532376 8.6330938 0.11583333
-0.49586779 -0.039669421 9.9173555 0.10083333
-0.47603306 -0.039669421 9.9173555 0.10083333
0.21818182 -0.039669421 9.9173555 0.10083333
-0.49586779 -0.01983471 9.9173555 0.10083333
-0.47603306 -0.01983471 9.9173555 0.10083333
-0.43636364 -0.01983471 9.9173555 0.10083333
-0.22085889 -0.014723926 7.3619628 0.13583334
-0.20613496 -0.014723926 7.3619628 0.13583334
-0.19141103 -0.014723926 7.3619628 0.13583334
-0.085993484 -0.0078175897 3.9087949 0.25583333
0.21818182 -0.01983471 9.9173555 0.10083333
0.27768594 -0.01983471 9.9173555 0.10083333
0.31735536 -0.01983471 9.9173555 0.10083333
-0.49586779 0 9.9173555 0.10083333
-0.47603306 0 9.9173555 0.10083333
-0.22085889 0 7.3619628 0.13583334
-0.070358306 0 3.9087949 0.25583333
-0.054723129 0 3.9087949 0.25583333
0.17851239 0 9.9173555 0.10083333
0.19834711 0 9.9173555 0.10083333
-0.49586779 0.01983471 9.9173555 0.10083333
-0.29752067 0.01983471 9.9173555 0.10083333
-0.79285717 0.042857144 10.714286 0.093333334
-0.33719009 0.039669421 9.9173555 0.10083333
-0.29752067 0.039669421 9.9173555 0.10083333
-0.27768594 0.039669421 9.9173555 0.10083333
-0.25785124 0.039669421 9.9173555 0.10083333
-0.078175895 0.015635179 3.9087949 0.25583333
0.25899282 0.034532376 8.6330938 0.11583333
0.27625901 0.034532376 8.6330938 0.11583333
0.17361704 0.020425534 5.1063833 0.19583333
0.40873364 0.0209607 5.2401748 0.19083333
-0.29752067 0.059504133 9.9173555 0.10083333
0.6857143 0.04675325 7.7922082 0.12833333
0.092012778 0.030670928 3.8338659 0.26083332
0.13035144 0.030670928 3.8338659 0.26083332
-0.42162159 0.081081077 8.1081076 0.12333334
-0.40540537 0.081081077 8.1081076 0.12333334
-0.38918915 0.081081077 8.1081076 0.12333334
-0.37297294 0.081081077 8.1081076 0.12333334
0.092012778 0.038338657 3.8338659 0.26083332
0.099680513 0.038338657 3.8338659 0.26083332
0.12268371 0.038338657 3.8338659 0.26083332
-0.85289258 0.11900827 9.9173555 0.10083333
-0.36302519 0.060504198 5.0420165 0.19833334
-0.33277309 0.060504198 5.0420165 0.19833334
-0.32268906 0.060504198 5.0420165 0.19833334
-0.35675675 0.097297288 8.1081076 0.12333334
0.63896108 0.0935065 7.7922082 0.12833333
0.6701299 0.0935065 7.7922082 0.12833333
0.6857143 0.0935065 7.7922082 0.12833333
0.70129871 0.0935065 7.7922082 0.12833333
-0.32268906 0.070588231 5.0420165 0.19833334
0.6857143 0.10909092 7.7922082 0.12833333
-0.85289258 0.15867768 9.9173555 0.10083333
-0.83305788 0.15867768 9.9173555 0.10083333
-0.81322318 0.15867768 9.9173555 0.10083333
-0.40540537 0.12972972 8.1081076 0.12333334
-0.37297294 0.12972972 8.1081076 0.12333334
-0.35675675 0.12972972 8.1081076 0.12333334
0.49271524 0.12715232 7.9470201 0.12583333
-0.83305788 0.17851239 9.9173555 0.10083333
-0.33277309 0.090756297 5.0420165 0.19833334
-0.32268906 0.090756297 5.0420165 0.19833334
0.32542372 0.18305084 10.169491 0.098333344
-0.17419353 0.19354838 9.6774187 0.10333334
-0.36774191 0.21290322 9.6774187 0.10333334
0.01983471 0.21818182 9.9173555 0.10083333
0.35744682 0.11234044 5.1063833 0.19583333
-0.38709676 0.23225805 9.6774187 0.10333334
-0.36774191 0.23225805 9.6774187 0.10333334
-0.17419353 0.23225805 9.6774187 0.10333334
0.01983471 0.23801653 9.9173555 0.10083333
0.039669421 0.23801653 9.9173555 0.10083333
0.29508197 0.11803278 4.9180326 0.20333333
0.31659576 0.1225532 5.1063833 0.19583333
0.32680854 0.1225532 5.1063833 0.19583333
0.32459015 0.11803278 4.9180326 0.20333333
0.33442622 0.11803278 4.9180326 0.20333333
0.34426227 0.11803278 4.9180326 0.20333333
0.3676596 0.1225532 5.1063833 0.19583333
0.37787238 0.1225532 5.1063833 0.19583333
-0.38709676 0.25161287 9.6774187 0.10333334
0.01983471 0.25785124 9.9173555 0.10083333
0.11374407 0.15924169 5.6872034 0.17583334
0.12511848 0.15924169 5.6872034 0.17583334
0.14786729 0.15924169 5.6872034 0.17583334
0.24857143 0.12 4.2857141 0.23333333
0.32680854 0.14297873 5.1063833 0.19583333
0.33702129 0.14297873 5.1063833 0.19583333
0.33442622 0.13770491 4.9180326 0.20333333
0.34426227 0.13770491 4.9180326 0.20333333
0.65999997 0.20999999 7.4999995 0.13333334
0.67499995 0.20999999 7.4999995 0.13333334
-0.13884297 0.29752067 9.9173555 0.10083333
-0.11900827 0.29752067 9.9173555 0.10083333
0.23225807 0.16589862 5.529954 0.18083332
0.25437787 0.16589862 5.529954 0.18083332
-0.83305788 0.31735536 9.9173555 0.10083333
-0.79338843 0.31735536 9.9173555 0.10083333
-0.59504133 0.31735536 9.9173555 0.10083333
-0.22173913 0.20869565 6.521739 0.15333334
-0.20869565 0.20869565 6.521739 0.15333334
-0.19565217 0.20869565 6.521739 0.15333334
-0.18260869 0.20869565 6.521739 0.15333334
-0.22446044 0.27625901 8.6330938 0.11583333
-0.20719425 0.27625901 8.6330938 0.11583333
-0.11900827 0.31735536 9.9173555 0.10083333
0.11374407 0.1819905 5.6872034 0.17583334
0.15924169 0.1819905 5.6872034 0.17583334
0.25437787 0.17695853 5.529954 0.18083332
0.26543778 0.17695853 5.529954 0.18083332
0.27649769 0.17695853 5.529954 0.18083332
0.23142856 0.13714285 4.2857141 0.23333333
0.23999999 0.13714285 4.2857141 0.23333333
0.24857143 0.13714285 4.2857141 0.23333333
0.32286996 0.17219731 5.381166 0.18583333
0.33363229 0.17219731 5.381166 0.18583333
0.34439462 0.17219731 5.381166 0.18583333
0.35515696 0.17219731 5.381166 0.18583333
0.36591929 0.17219731 5.381166 0.18583333
-0.83305788 0.33719009 9.9173555 0.10083333
-0.77355373 0.33719009 9.9173555 0.10083333
-0.65454549 0.33719009 9.9173555 0.10083333
-0.63471073 0.33719009 9.9173555 0.10083333
-0.61487603 0.33719009 9.9173555 0.10083333
-0.11900827 0.33719009 9.9173555 0.10083333
-0.83305788 0.35702479 9.9173555 0.10083333
-0.81322318 0.35702479 9.9173555 0.10083333
-0.61487603 0.35702479 9.9173555 0.10083333
-0.59504133 0.35702479 9.9173555 0.10083333
-0.19565217 0.23478261 6.521739 0.15333334
-0.22446044 0.31079137 8.6330938 0.11583333
-0.20719425 0.31079137 8.6330938 0.11583333
-0.099173553 0.35702479 9.9173555 0.10083333
0 0.37565216 10.434782 0.095833339
0.020869564 0.37565216 10.434782 0.095833339
0.44745758 0.36610168 10.169491 0.098333344
-0.59504133 0.37685952 9.9173555 0.10083333
-0.11900827 0.37685952 9.9173555 0.10083333
-0.099173553 0.37685952 9.9173555 0.10083333
-0.079338841 0.37685952 9.9173555 0.10083333
0.40677965 0.38644066 10.169491 0.098333344
0.4271186 0.38644066 10.169491 0.098333344
-0.59504133 0.39669421 9.9173555 0.10083333
-0.099173553 0.39669421 9.9173555 0.10083333
0.23801653 0.39669421 9.9173555 0.10083333
0.20662253 0.31788081 7.9470201 0.12583333
0.4271186 0.40677965 10.169491 0.098333344
0.44745758 0.40677965 10.169491 0.098333344
0.46779656 0.40677965 10.169491 0.098333344
0.22049469 0.1696113 4.2402825 0.23583335
0.22897525 0.1696113 4.2402825 0.23583335
0.23745582 0.1696113 4.2402825 0.23583335
0.89256197 0.39669421 9.9173555 0.10083333
-0.57520664 0.41652894 9.9173555 0.10083333
-0.21818182 0.43636364 9.9173555 0.10083333
0.21818182 0.43636364 9.9173555 0.10083333
0.23801653 0.43636364 9.9173555 0.10083333
0.52965516 0.36413792 8.2758617 0.12083334
0.89256197 0.43636364 9.9173555 0.10083333
0.91239673 0.43636364 9.9173555 0.10083333
-0.21818182 0.45619836 9.9173555 0.10083333
0.24593639 0.195053 4.2402825 0.23583335
0.29508197 0.2262295 4.9180326 0.20333333
0.51310343 0.38068965 8.2758617 0.12083334
0.52965516 0.38068965 8.2758617 0.12083334
0.54620689 0.38068965 8.2758617 0.12083334
0.35172415 0.23793104 5.1724138 0.19333333
-0.79384613 0.44307691 9.2307692 0.10833333
-0.75692308 0.44307691 9.2307692 0.10833333
-0.6857143 0.4330827 9.0225563 0.11083333
-0.66766918 0.4330827 9.0225563 0.11083333
-0.67438018 0.47603306 9.9173555 0.10083333
-0.79384613 0.46153846 9.2307692 0.10833333
0 0.49586779 9.9173555 0.10083333
0.27540982 0.24590163 4.9180326 0.20333333
0.29508197 0.24590163 4.9180326 0.20333333
0.30491802 0.24590163 4.9180326 0.20333333
0.33103448 0.25862068 5.1724138 0.19333333
0.34137931 0.25862068 5.1724138 0.19333333
0.35172415 0.25862068 5.1724138 0.19333333
0.36206898 0.25862068 5.1724138 0.19333333
0.38275862 0.25862068 5.1724138 0.19333333
-0.7753846 0.47999999 9.2307692 0.10833333
-0.44117647 0.45882353 8.8235292 0.11333334
0 0.51570249 9.9173555 0.10083333
-0.47647059 0.47647059 8.8235292 0.11333334
-0.45882353 0.47647059 8.8235292 0.11333334
0 0.53553718 9.9173555 0.10083333
0.01983471 0.53553718 9.9173555 0.10083333
0.039669421 0.53553718 9.9173555 0.10083333
0.46779656 0.54915249 10.169491 0.098333344
0.33103448 0.27931035 5.1724138 0.19333333
0.39310345 0.27931035 5.1724138 0.19333333
0.32054794 0.22191781 4.1095891 0.24333332
0.32876712 0.22191781 4.1095891 0.24333332
0.3369863 0.22191781 4.1095891 0.24333332
-0.75371903 0.55537188 9.9173555 0.10083333
-0.73388433 0.55537188 9.9173555 0.10083333
-0.71404958 0.55537188 9.9173555 0.10083333
-0.69421488 0.55537188 9.9173555 0.10083333
-0.67438018 0.55537188 9.9173555 0.10083333
-0.65454549 0.55537188 9.9173555 0.10083333
-0.44117647 0.49411765 8.8235292 0.11333334
0.01589404 0.44503313 7.9470201 0.12583333
0.31735536 0.55537188 9.9173555 0.10083333
0.33719009 0.55537188 9.9173555 0.10083333
-0.85289258 0.57520664 9.9173555 0.10083333
-0.81322318 0.57520664 9.9173555 0.10083333
-0.79338843 0.57520664 9.9173555 0.10083333
-0.69421488 0.57520664 9.9173555 0.10083333
-0.34532374 0.50071943 8.6330938 0.11583333
0.01589404 0.46092716 7.9470201 0.12583333
0.31735536 0.57520664 9.9173555 0.10083333
0.53553718 0.57520664 9.9173555 0.10083333
-0.83305788 0.59504133 9.9173555 0.10083333
-0.81322318 0.59504133 9.9173555 0.10083333
-0.69421488 0.59504133 9.9173555 0.10083333
-0.67438018 0.59504133 9.9173555 0.10083333
0.031788081 0.47682121 7.9470201 0.12583333
0.047682121 0.47682121 7.9470201 0.12583333
0.31735536 0.59504133 9.9173555 0.10083333
0.33719009 0.59504133 9.9173555 0.10083333
0.34520549 0.24657534 4.1095891 0.24333332
0.35342467 0.24657534 4.1095891 0.24333332
0.36164385 0.24657534 4.1095891 0.24333332
0.36986303 0.24657534 4.1095891 0.24333332
0.37808219 0.24657534 4.1095891 0.24333332
0.38630137 0.24657534 4.1095891 0.24333332
