# .PCD v0.7 - Point Cloud Data file format
VERSION 0.7
FIELDS x y z intensity
SIZE 4 4 4 4
TYPE F F F F
COUNT 1 1 1 1
WIDTH 393
HEIGHT 1
VIEWPOINT 0 0 0 1 0 0 0
POINTS 393
DATA ascii
-0.47603306 -0.59504133 9.9173555 0.10083333
-0.45619836 -0.59504133 9.9173555 0.10083333
-0.66486484 -0.47027025 8.1081076 0.12333334
-0.45619836 -0.57520664 9.9173555 0.10083333
-0.19834711 -0.57520664 9.9173555 0.10083333
-0.17851239 -0.57520664 9.9173555 0.10083333
-0.15867768 -0.57520664 9.9173555 0.10083333
0.43885711 -0.39771426 6.8571424 0.14583334
0.45257139 -0.39771426 6.8571424 0.14583334
0.6803149 -0.54803145 9.4488182 0.10583334
0.7181102 -0.54803145 9.4488182 0.10583334
0.7370078 -0.54803145 9.4488182 0.10583334
-0.45619836 -0.55537188 9.9173555 0.10083333
0.41142854 -0.38399997 6.8571424 0.14583334
0.45257139 -0.38399997 6.8571424 0.14583334
0.6803149 -0.5291338 9.4488182 0.10583334
0.7181102 -0.5291338 9.4488182 0.10583334
-0.64864862 -0.43783781 8.1081076 0.12333334
-0.45619836 -0.53553718 9.9173555 0.10083333
-0.15867768 -0.53553718 9.9173555 0.10083333
-0.19834711 -0.51570249 9.9173555 0.10083333
0 -0.26896551 5.1724138 0.19333333
0.010344828 -0.26896551 5.1724138 0.19333333
0.028124999 -0.24375001 4.6875 0.21333334
0.037500001 -0.24375001 4.6875 0.21333334
0.046875 -0.24375001 4.6875 0.21333334
0.010344828 -0.25862068 5.1724138 0.19333333
-0.36610168 -0.48813555 10.169491 0.098333344
-0.3457627 -0.48813555 10.169491 0.098333344
0.028124999 -0.22499999 4.6875 0.21333334
0.04137931 -0.24827586 5.1724138 0.19333333
0.05172414 -0.24827586 5.1724138 0.19333333
0.13251533 -0.35337421 7.3619628 0.13583334
0.14723925 -0.35337421 7.3619628 0.13583334
0.38672984 -0.27298576 5.6872034 0.17583334
0.39810425 -0.27298576 5.6872034 0.17583334
0.42085305 -0.27298576 5.6872034 0.17583334
0.6705882 -0.42352942 8.8235292 0.11333334
-0.38644066 -0.46779656 10.169491 0.098333344
-0.36610168 -0.46779656 10.169491 0.098333344
0.53553718 -0.45619836 9.9173555 0.10083333
0.44360188 -0.26161134 5.6872034 0.17583334
0.11779141 -0.32392636 7.3619628 0.13583334
-0.12923077 -0.3876923 9.2307692 0.10833333
-0.11076923 -0.3876923 9.2307692 0.10833333
-0.092307694 -0.3876923 9.2307692 0.10833333
0.11779141 -0.30920243 7.3619628 0.13583334
0.37535542 -0.23886254 5.6872034 0.17583334
0.38672984 -0.23886254 5.6872034 0.17583334
0.39810425 -0.23886254 5.6872034 0.17583334
0.40947863 -0.23886254 5.6872034 0.17583334
-0.32542372 -0.40677965 10.169491 0.098333344
-0.30508474 -0.40677965 10.169491 0.098333344
-0.415748 -0.3590551 9.4488182 0.10583334
-0.39685038 -0.3590551 9.4488182 0.10583334
-0.36610168 -0.38644066 10.169491 0.098333344
-0.11076923 -0.35076922 9.2307692 0.10833333
0.4752475 -0.22574256 5.9405937 0.16833334
0.48712867 -0.22574256 5.9405937 0.16833334
-0.32542372 -0.36610168 10.169491 0.098333344
-0.11076923 -0.3323077 9.2307692 0.10833333
0.39183676 -0.22040817 6.1224494 0.16333333
0.40408167 -0.22040817 6.1224494 0.16333333
0.38672984 -0.20473932 5.6872034 0.17583334
0.39810425 -0.20473932 5.6872034 0.17583334
0.40947863 -0.20473932 5.6872034 0.17583334
-0.11076923 -0.31384614 9.2307692 0.10833333
-0.092307694 -0.31384614 9.2307692 0.10833333
-0.015286625 -0.24458601 7.6433125 0.13083333
0.015286625 -0.24458601 7.6433125 0.13083333
0.030573251 -0.24458601 7.6433125 0.13083333
0.41632655 -0.19591838 6.1224494 0.16333333
0.42857146 -0.19591838 6.1224494 0.16333333
0.43960392 -0.190099 5.9405937 0.16833334
0.4633663 -0.190099 5.9405937 0.16833334
0.59644967 -0.22721893 7.1005917 0.14083333
-0.87272727 -0.29752067 9.9173555 0.10083333
-0.33719009 -0.29752067 9.9173555 0.10083333
0.015286625 -0.22929937 7.6433125 0.13083333
0.030573251 -0.22929937 7.6433125 0.13083333
-0.37685952 -0.27768594 9.9173555 0.10083333
-0.35702479 -0.27768594 9.9173555 0.10083333
-0.33719009 -0.27768594 9.9173555 0.10083333
-0.31735536 -0.27768594 9.9173555 0.10083333
0.41584155 -0.16633663 5.9405937 0.16833334
0.42772275 -0.16633663 5.9405937 0.16833334
0.43960392 -0.16633663 5.9405937 0.16833334
0.89256197 -0.27768594 9.9173555 0.10083333
0.41652894 -0.25785124 9.9173555 0.10083333
0.43636364 -0.25785124 9.9173555 0.10083333
0.41584155 -0.15445544 5.9405937 0.16833334
-0.68307692 -0.22153845 9.2307692 0.10833333
-0.61487603 -0.23801653 9.9173555 0.10083333
-0.52258062 -0.23225805 9.6774187 0.10333334
-0.48387092 -0.23225805 9.6774187 0.10333334
0.39669421 -0.23801653 9.9173555 0.10083333
0.41652894 -0.23801653 9.9173555 0.10083333
0.43636364 -0.23801653 9.9173555 0.10083333
-0.85289258 -0.21818182 9.9173555 0.10083333
-0.50322574 -0.21290322 9.6774187 0.10333334
-0.25785124 -0.21818182 9.9173555 0.10083333
-0.63471073 -0.19834711 9.9173555 0.10083333
-0.23801653 -0.19834711 9.9173555 0.10083333
-0.21818182 -0.19834711 9.9173555 0.10083333
0.39669421 -0.19834711 9.9173555 0.10083333
-0.85289258 -0.17851239 9.9173555 0.10083333
-0.83305788 -0.17851239 9.9173555 0.10083333
0.01983471 -0.17851239 9.9173555 0.10083333
0.39669421 -0.17851239 9.9173555 0.10083333
-0.87272727 -0.15867768 9.9173555 0.10083333
-0.85289258 -0.15867768 9.9173555 0.10083333
-0.23801653 -0.15867768 9.9173555 0.10083333
0.01983471 -0.15867768 9.9173555 0.10083333
0.24406777 -0.16271186 10.169491 0.098333344
0.43636364 -0.15867768 9.9173555 0.10083333
0.87096769 -0.1548387 9.6774187 0.10333334
0.89032251 -0.1548387 9.6774187 0.10333334
-0.87272727 -0.13884297 9.9173555 0.10083333
-0.71404958 -0.13884297 9.9173555 0.10083333
-0.27768594 -0.13884297 9.9173555 0.10083333
-0.25785124 -0.13884297 9.9173555 0.10083333
-0.23801653 -0.13884297 9.9173555 0.10083333
0 -0.13884297 9.9173555 0.10083333
0.20338982 -0.14237288 10.169491 0.098333344
0.22372879 -0.14237288 10.169491 0.098333344
0.24406777 -0.14237288 10.169491 0.098333344
0.41652894 -0.13884297 9.9173555 0.10083333
0.89032251 -0.13548386 9.6774187 0.10333334
-0.91239673 -0.11900827 9.9173555 0.10083333
-0.89256197 -0.11900827 9.9173555 0.10083333
-0.71404958 -0.11900827 9.9173555 0.10083333
-0.69421488 -0.11900827 9.9173555 0.10083333
-0.01983471 -0.11900827 9.9173555 0.10083333
0.85161287 -0.11612903 9.6774187 0.10333334
0.87096769 -0.11612903 9.6774187 0.10333334
0.89032251 -0.11612903 9.6774187 0.10333334
-0.91239673 -0.099173553 9.9173555 0.10083333
-0.73388433 -0.099173553 9.9173555 0.10083333
-0.71404958 -0.099173553 9.9173555 0.10083333
-0.01983471 -0.099173553 9.9173555 0.10083333
0 -0.099173553 9.9173555 0.10083333
0.41273886 -0.076433122 7.6433125 0.13083333
0.42802548 -0.076433122 7.6433125 0.13083333
0.44331211 -0.076433122 7.6433125 0.13083333
0.45859873 -0.076433122 7.6433125 0.13083333
0.65806448 -0.096774191 9.6774187 0.10333334
0.6774193 -0.096774191 9.6774187 0.10333334
-0.91239673 -0.079338841 9.9173555 0.10083333
-0.73388433 -0.079338841 9.9173555 0.10083333
0 -0.079338841 9.9173555 0.10083333
0.01983471 -0.079338841 9.9173555 0.10083333
0.44331211 -0.061146501 7.6433125 0.13083333
0.65806448 -0.077419348 9.6774187 0.10333334
0.6774193 -0.077419348 9.6774187 0.10333334
0.42146343 -0.046829268 5.8536587 0.17083333
0.43317074 -0.046829268 5.8536587 0.17083333
0.44487807 -0.046829268 5.8536587 0.17083333
0.38838175 -0.039834026 4.9792533 0.20083332
0.39834026 -0.039834026 4.9792533 0.20083332
-0.51570249 -0.059504133 9.9173555 0.10083333
-0.49586779 -0.059504133 9.9173555 0.10083333
-0.47603306 -0.059504133 9.9173555 0.10083333
-0.36774191 -0.058064513 9.6774187 0.10333334
0.19834711 -0.059504133 9.9173555 0.10083333
0.21818182 -0.059504133 9.9173555 0.10083333
-0.91239673 -0.039669421 9.9173555 0.10083333
-0.49586779 -0.039669421 9.9173555 0.10083333
-0.47603306 -0.039669421 9.9173555 0.10083333
-0.38709676 -0.038709674 9.6774187 0.10333334
-0.36774191 -0.038709674 9.6774187 0.10333334
0.21818182 -0.039669421 9.9173555 0.10083333
0.43317074 -0.023414634 5.8536587 0.17083333
-0.91239673 -0.01983471 9.9173555 0.10083333
-0.49586779 -0.01983471 9.9173555 0.10083333
-0.47603306 -0.01983471 9.9173555 0.10083333
-0.36774191 -0.019354837 9.6774187 0.10333334
-0.29752067 -0.01983471 9.9173555 0.10083333
-0.27768594 -0.01983471 9.9173555 0.10083333
-0.25785124 -0.01983471 9.9173555 0.10083333
0.21818182 -0.01983471 9.9173555 0.10083333
0.38744396 -0.010762332 5.381166 0.18583333
0.39820629 -0.010762332 5.381166 0.18583333
0.40896863 -0.010762332 5.381166 0.18583333
0.41973096 -0.010762332 5.381166 0.18583333
0.39834026 -0.0099585066 4.9792533 0.20083332
0.41825727 -0.0099585066 4.9792533 0.20083332
0.6857143 -0.015584417 7.7922082 0.12833333
0.70129871 -0.015584417 7.7922082 0.12833333
0.71688318 -0.015584417 7.7922082 0.12833333
-0.91239673 0 9.9173555 0.10083333
-0.89256197 0 9.9173555 0.10083333
-0.49586779 0 9.9173555 0.10083333
-0.47603306 0 9.9173555 0.10083333
-0.29752067 0 9.9173555 0.10083333
0.17851239 0 9.9173555 0.10083333
0.19834711 0 9.9173555 0.10083333
0.21818182 0 9.9173555 0.10083333
-0.49586779 0.01983471 9.9173555 0.10083333
-0.29752067 0.01983471 9.9173555 0.10083333
0.19902439 0.011707317 5.8536587 0.17083333
-0.29752067 0.039669421 9.9173555 0.10083333
-0.27768594 0.039669421 9.9173555 0.10083333
-0.25785124 0.039669421 9.9173555 0.10083333
0.19902439 0.023414634 5.8536587 0.17083333
0.21073171 0.023414634 5.8536587 0.17083333
0.22243904 0.023414634 5.8536587 0.17083333
0.41538459 0.023076922 5.7692304 0.17333335
0.42692304 0.023076922 5.7692304 0.17333335
0.44999996 0.023076922 5.7692304 0.17333335
0.46153843 0.023076922 5.7692304 0.17333335
0.6857143 0.031168833 7.7922082 0.12833333
0.70129871 0.031168833 7.7922082 0.12833333
-0.51570249 0.059504133 9.9173555 0.10083333
-0.49586779 0.059504133 9.9173555 0.10083333
-0.29752067 0.059504133 9.9173555 0.10083333
0.50769228 0.034615383 5.7692304 0.17333335
-0.51570249 0.079338841 9.9173555 0.10083333
0.099173553 0.079338841 9.9173555 0.10083333
0.11900827 0.079338841 9.9173555 0.10083333
0.22243904 0.046829268 5.8536587 0.17083333
0.23414634 0.046829268 5.8536587 0.17083333
0.45652172 0.052173913 6.521739 0.15333334
-0.37959185 0.061224494 6.1224494 0.16333333
-0.55537188 0.099173553 9.9173555 0.10083333
-0.53553718 0.099173553 9.9173555 0.10083333
-0.51570249 0.099173553 9.9173555 0.10083333
-0.47603306 0.099173553 9.9173555 0.10083333
0.17560977 0.058536585 5.8536587 0.17083333
0.46956521 0.065217391 6.521739 0.15333334
0.42692304 0.057692304 5.7692304 0.17333335
0.43846151 0.057692304 5.7692304 0.17333335
-0.39183676 0.085714288 6.1224494 0.16333333
-0.83225799 0.1548387 9.6774187 0.10333334
-0.81290317 0.1548387 9.6774187 0.10333334
-0.49586779 0.15867768 9.9173555 0.10083333
-0.47603306 0.15867768 9.9173555 0.10083333
-0.15867768 0.15867768 9.9173555 0.10083333
-0.13884297 0.15867768 9.9173555 0.10083333
-0.11900827 0.15867768 9.9173555 0.10083333
-0.13884297 0.17851239 9.9173555 0.10083333
0.32542372 0.18305084 10.169491 0.098333344
0.41454545 0.098181821 5.4545455 0.18333334
0.77697843 0.15539569 8.6330938 0.11583333
-0.51570249 0.19834711 9.9173555 0.10083333
-0.49586779 0.19834711 9.9173555 0.10083333
0.30508474 0.20338982 10.169491 0.098333344
0.36610168 0.20338982 10.169491 0.098333344
0.41454545 0.10909091 5.4545455 0.18333334
0.01983471 0.21818182 9.9173555 0.10083333
0.092817679 0.14585635 6.6298342 0.15083334
0.3457627 0.22372879 10.169491 0.098333344
0.75971228 0.18992807 8.6330938 0.11583333
0.77697843 0.18992807 8.6330938 0.11583333
0.79424465 0.18992807 8.6330938 0.11583333
-0.17851239 0.23801653 9.9173555 0.10083333
-0.15867768 0.23801653 9.9173555 0.10083333
-0.13884297 0.23801653 9.9173555 0.10083333
0.01983471 0.23801653 9.9173555 0.10083333
0.039669421 0.23801653 9.9173555 0.10083333
0.059504133 0.23801653 9.9173555 0.10083333
0.092817679 0.15911601 6.6298342 0.15083334
0.10607734 0.15911601 6.6298342 0.15083334
0.11550802 0.1540107 6.4171124 0.15583333
0.12834224 0.1540107 6.4171124 0.15583333
0.1540107 0.1540107 6.4171124 0.15583333
0.36000001 0.13090909 5.4545455 0.18333334
0.37090909 0.13090909 5.4545455 0.18333334
0.38181818 0.13090909 5.4545455 0.18333334
0.39272729 0.13090909 5.4545455 0.18333334
0.40363637 0.13090909 5.4545455 0.18333334
-0.83305788 0.25785124 9.9173555 0.10083333
0.01983471 0.25785124 9.9173555 0.10083333
-0.83305788 0.27768594 9.9173555 0.10083333
0.075590543 0.2645669 9.4488182 0.10583334
0.094488181 0.2645669 9.4488182 0.10583334
0.10607734 0.18563536 6.6298342 0.15083334
0.12834224 0.17967914 6.4171124 0.15583333
0.16684492 0.17967914 6.4171124 0.15583333
0.45443785 0.19881657 7.1005917 0.14083333
0.46863905 0.19881657 7.1005917 0.14083333
0.39272729 0.15272728 5.4545455 0.18333334
0.64785272 0.20613496 7.3619628 0.13583334
0.66257668 0.20613496 7.3619628 0.13583334
0.67730057 0.20613496 7.3619628 0.13583334
-0.83305788 0.29752067 9.9173555 0.10083333
0.64785272 0.22085889 7.3619628 0.13583334
-0.85289258 0.31735536 9.9173555 0.10083333
-0.83305788 0.31735536 9.9173555 0.10083333
-0.25030673 0.23558281 7.3619628 0.13583334
-0.23558281 0.23558281 7.3619628 0.13583334
0.44023669 0.22721893 7.1005917 0.14083333
0.48284024 0.22721893 7.1005917 0.14083333
-0.85289258 0.33719009 9.9173555 0.10083333
-0.83305788 0.33719009 9.9173555 0.10083333
-0.67118639 0.3457627 10.169491 0.098333344
-0.65084743 0.3457627 10.169491 0.098333344
-0.63050842 0.3457627 10.169491 0.098333344
-0.48813555 0.3457627 10.169491 0.098333344
-0.11900827 0.33719009 9.9173555 0.10083333
-0.83305788 0.35702479 9.9173555 0.10083333
-0.63050842 0.36610168 10.169491 0.098333344
-0.61016947 0.36610168 10.169491 0.098333344
-0.099173553 0.35702479 9.9173555 0.10083333
0 0.37565216 10.434782 0.095833339
0.020869564 0.37565216 10.434782 0.095833339
0.43636364 0.35702479 9.9173555 0.10083333
-0.61016947 0.38644066 10.169491 0.098333344
-0.11900827 0.37685952 9.9173555 0.10083333
-0.099173553 0.37685952 9.9173555 0.10083333
-0.079338841 0.37685952 9.9173555 0.10083333
0.39669421 0.37685952 9.9173555 0.10083333
0.41652894 0.37685952 9.9173555 0.10083333
-0.61016947 0.40677965 10.169491 0.098333344
-0.099173553 0.39669421 9.9173555 0.10083333
0.39669421 0.39669421 9.9173555 0.10083333
0.43636364 0.39669421 9.9173555 0.10083333
0.45619836 0.39669421 9.9173555 0.10083333
0.47603306 0.39669421 9.9173555 0.10083333
0.91525418 0.40677965 10.169491 0.098333344
-0.58983046 0.4271186 10.169491 0.098333344
0.47603306 0.41652894 9.9173555 0.10083333
-0.21818182 0.43636364 9.9173555 0.10083333
0.45443785 0.31242603 7.1005917 0.14083333
-0.21818182 0.45619836 9.9173555 0.10083333
0.25312501 0.215625 4.6875 0.21333334
0.26249999 0.215625 4.6875 0.21333334
0.44023669 0.32662722 7.1005917 0.14083333
0.45443785 0.32662722 7.1005917 0.14083333
0.48284024 0.32662722 7.1005917 0.14083333
0.42211053 0.27738693 6.0301504 0.16583334
0.43417084 0.27738693 6.0301504 0.16583334
-0.85289258 0.47603306 9.9173555 0.10083333
-0.83305788 0.47603306 9.9173555 0.10083333
-0.81322318 0.47603306 9.9173555 0.10083333
-0.79338843 0.47603306 9.9173555 0.10083333
-0.77355373 0.47603306 9.9173555 0.10083333
-0.75371903 0.47603306 9.9173555 0.10083333
-0.73388433 0.47603306 9.9173555 0.10083333
-0.23801653 0.47603306 9.9173555 0.10083333
-0.21818182 0.47603306 9.9173555 0.10083333
-0.85289258 0.49586779 9.9173555 0.10083333
-0.83305788 0.49586779 9.9173555 0.10083333
0 0.49586779 9.9173555 0.10083333
0.234375 0.234375 4.6875 0.21333334
0.26249999 0.234375 4.6875 0.21333334
0.44023669 0.35502958 7.1005917 0.14083333
0.45443785 0.35502958 7.1005917 0.14083333
0.46863905 0.35502958 7.1005917 0.14083333
0.48284024 0.35502958 7.1005917 0.14083333
0.42211053 0.30150753 6.0301504 0.16583334
0.43417084 0.30150753 6.0301504 0.16583334
-0.83305788 0.51570249 9.9173555 0.10083333
-0.73220336 0.52881354 10.169491 0.098333344
0 0.51570249 9.9173555 0.10083333
-0.53553718 0.53553718 9.9173555 0.10083333
-0.039669421 0.53553718 9.9173555 0.10083333
0 0.53553718 9.9173555 0.10083333
0.01983471 0.53553718 9.9173555 0.10083333
0.059504133 0.53553718 9.9173555 0.10083333
-0.77288133 0.56949151 10.169491 0.098333344
-0.75254232 0.56949151 10.169491 0.098333344
-0.73220336 0.56949151 10.169491 0.098333344
-0.71186435 0.56949151 10.169491 0.098333344
-0.6915254 0.56949151 10.169491 0.098333344
-0.67118639 0.56949151 10.169491 0.098333344
-0.51570249 0.55537188 9.9173555 0.10083333
-0.36774191 0.54193544 9.6774187 0.10333334
0.01983471 0.55537188 9.9173555 0.10083333
0.31735536 0.55537188 9.9173555 0.10083333
0.33719009 0.55537188 9.9173555 0.10083333
-0.71186435 0.58983046 10.169491 0.098333344
-0.38709676 0.56129026 9.6774187 0.10333334
0.039669421 0.57520664 9.9173555 0.10083333
0.31735536 0.57520664 9.9173555 0.10083333
-0.6915254 0.61016947 10.169491 0.098333344
-0.38709676 0.58064514 9.6774187 0.10333334
-0.36774191 0.58064514 9.6774187 0.10333334
-0.25430465 0.47682121 7.9470201 0.12583333
0.063396223 0.27169812 4.5283017 0.22083335
0.072452828 0.27169812 4.5283017 0.22083335
0.081509434 0.27169812 4.5283017 0.22083335
0.090566032 0.27169812 4.5283017 0.22083335
0.27768594 0.59504133 9.9173555 0.10083333
0.31735536 0.59504133 9.9173555 0.10083333
0.33719009 0.59504133 9.9173555 0.10083333
0.35424355 0.26568267 4.4280443 0.22583333
0.36309963 0.26568267 4.4280443 0.22583333
0.37195572 0.26568267 4.4280443 0.22583333
0.38081181 0.26568267 4.4280443 0.22583333
0.48663595 0.33179724 5.529954 0.18083332
0.49769586 0.33179724 5.529954 0.18083332
0.50875574 0.33179724 5.529954 0.18083332
0.51981568 0.33179724 5.529954 0.18083332
