# .PCD v0.7 - Point Cloud Data file format
VERSION 0.7
FIELDS x y z intensity
SIZE 4 4 4 4
TYPE F F F F
COUNT 1 1 1 1
WIDTH 372
HEIGHT 1
VIEWPOINT 0 0 0 1 0 0 0
POINTS 372
DATA ascii
-0.71404958 -0.59504133 9.9173555 0.10083333
-0.69421488 -0.59504133 9.9173555 0.10083333
-0.4645161 -0.58064514 9.6774187 0.10333334
-0.44516125 -0.58064514 9.6774187 0.10333334
-0.42580643 -0.58064514 9.6774187 0.10333334
-0.40645158 -0.58064514 9.6774187 0.10333334
0.12521738 -0.62608695 10.434782 0.095833339
0.14608695 -0.62608695 10.434782 0.095833339
-0.71404958 -0.57520664 9.9173555 0.10083333
-0.69421488 -0.57520664 9.9173555 0.10083333
-0.44516125 -0.56129026 9.6774187 0.10333334
0.7181102 -0.54803145 9.4488182 0.10583334
0.7370078 -0.54803145 9.4488182 0.10583334
0.75590545 -0.54803145 9.4488182 0.10583334
-0.44516125 -0.54193544 9.6774187 0.10333334
0.69677413 -0.54193544 9.6774187 0.10333334
0.7181102 -0.5291338 9.4488182 0.10583334
-0.75483865 -0.52258062 9.6774187 0.10333334
0.7181102 -0.5102362 9.4488182 0.10583334
0.7370078 -0.5102362 9.4488182 0.10583334
0.011707317 -0.30439025 5.8536587 0.17083333
0.023414634 -0.30439025 5.8536587 0.17083333
0.029508196 -0.25573769 4.9180326 0.20333333
0.039344262 -0.25573769 4.9180326 0.20333333
0.049180325 -0.25573769 4.9180326 0.20333333
0.059016392 -0.25573769 4.9180326 0.20333333
-0.77419353 -0.48387092 9.6774187 0.10333334
0.011707317 -0.29268295 5.8536587 0.17083333
0.16285715 -0.2142857 4.2857141 0.23333333
0.17142856 -0.2142857 4.2857141 0.23333333
0.17999999 -0.2142857 4.2857141 0.23333333
0.18857142 -0.2142857 4.2857141 0.23333333
0.046829268 -0.28097561 5.8536587 0.17083333
0.062176164 -0.29844558 6.2176166 0.16083333
0.074611396 -0.29844558 6.2176166 0.16083333
0.087046631 -0.29844558 6.2176166 0.16083333
0.099481866 -0.29844558 6.2176166 0.16083333
0.47441861 -0.33488372 6.9767442 0.14333333
0.48837209 -0.33488372 6.9767442 0.14333333
0.73548383 -0.4645161 9.6774187 0.10333334
-0.79354835 -0.44516125 9.6774187 0.10333334
-0.81290317 -0.42580643 9.6774187 0.10333334
-0.79354835 -0.42580643 9.6774187 0.10333334
-0.77419353 -0.42580643 9.6774187 0.10333334
-0.81290317 -0.40645158 9.6774187 0.10333334
0.43756905 -0.27845302 6.6298342 0.15083334
0.47441861 -0.29302326 6.9767442 0.14333333
0.48837209 -0.29302326 6.9767442 0.14333333
0.47734806 -0.27845302 6.6298342 0.15083334
-0.83225799 -0.38709676 9.6774187 0.10333334
-0.81290317 -0.38709676 9.6774187 0.10333334
0.42430937 -0.23867403 6.6298342 0.15083334
0.45082873 -0.23867403 6.6298342 0.15083334
0.46408838 -0.23867403 6.6298342 0.15083334
0.46956521 -0.23478261 6.521739 0.15333334
0.41860464 -0.23720931 6.9767442 0.14333333
0.37674418 -0.22325581 6.9767442 0.14333333
0.39069769 -0.22325581 6.9767442 0.14333333
0.40465117 -0.22325581 6.9767442 0.14333333
0.41860464 -0.22325581 6.9767442 0.14333333
0.43255815 -0.22325581 6.9767442 0.14333333
0.45082873 -0.21215469 6.6298342 0.15083334
0.85289258 -0.31735536 9.9173555 0.10083333
-0.32903224 -0.29032257 9.6774187 0.10333334
0.85289258 -0.29752067 9.9173555 0.10083333
-0.36774191 -0.27096772 9.6774187 0.10333334
-0.34838706 -0.27096772 9.6774187 0.10333334
-0.32903224 -0.27096772 9.6774187 0.10333334
-0.30967739 -0.27096772 9.6774187 0.10333334
-0.29032257 -0.27096772 9.6774187 0.10333334
0.87272727 -0.27768594 9.9173555 0.10083333
0.89256197 -0.27768594 9.9173555 0.10083333
-0.85161287 -0.25161287 9.6774187 0.10333334
0.89256197 -0.25785124 9.9173555 0.10083333
-0.85161287 -0.23225805 9.6774187 0.10333334
-0.623622 -0.22677164 9.4488182 0.10583334
-0.43034482 -0.19862068 8.2758617 0.12083334
-0.41379309 -0.19862068 8.2758617 0.12083334
-0.38068965 -0.19862068 8.2758617 0.12083334
0.41652894 -0.23801653 9.9173555 0.10083333
-0.89032251 -0.21290322 9.6774187 0.10333334
-0.87096769 -0.21290322 9.6774187 0.10333334
-0.85161287 -0.21290322 9.6774187 0.10333334
0.39669421 -0.19834711 9.9173555 0.10083333
0.5669291 -0.18897636 9.4488182 0.10583334
0.58582675 -0.18897636 9.4488182 0.10583334
0.60472435 -0.18897636 9.4488182 0.10583334
-0.83225799 -0.17419353 9.6774187 0.10333334
0.39669421 -0.17851239 9.9173555 0.10083333
0.23801653 -0.15867768 9.9173555 0.10083333
0.37685952 -0.15867768 9.9173555 0.10083333
0.41652894 -0.15867768 9.9173555 0.10083333
0.87096769 -0.1548387 9.6774187 0.10333334
0.89032251 -0.1548387 9.6774187 0.10333334
0 -0.14237288 10.169491 0.098333344
0.21818182 -0.13884297 9.9173555 0.10083333
0.23801653 -0.13884297 9.9173555 0.10083333
0.25785124 -0.13884297 9.9173555 0.10083333
0.41652894 -0.13884297 9.9173555 0.10083333
0.89032251 -0.13548386 9.6774187 0.10333334
-0.020338982 -0.12203389 10.169491 0.098333344
0.87096769 -0.11612903 9.6774187 0.10333334
0.89032251 -0.11612903 9.6774187 0.10333334
0.90967739 -0.11612903 9.6774187 0.10333334
-0.020338982 -0.10169491 10.169491 0.098333344
0 -0.10169491 10.169491 0.098333344
0.38282207 -0.073619626 7.3619628 0.13583334
0.42699385 -0.073619626 7.3619628 0.13583334
0.57230771 -0.092307694 9.2307692 0.10833333
0.59076923 -0.092307694 9.2307692 0.10833333
0.42699385 -0.058895703 7.3619628 0.13583334
0.57230771 -0.073846154 9.2307692 0.10833333
0.59076923 -0.073846154 9.2307692 0.10833333
0.38744396 -0.043049328 5.381166 0.18583333
0.39820629 -0.043049328 5.381166 0.18583333
0.40896863 -0.043049328 5.381166 0.18583333
0.41973096 -0.043049328 5.381166 0.18583333
-0.47603306 -0.059504133 9.9173555 0.10083333
-0.43636364 -0.059504133 9.9173555 0.10083333
-0.49586779 -0.039669421 9.9173555 0.10083333
-0.47603306 -0.039669421 9.9173555 0.10083333
0.24672896 -0.022429906 5.6074762 0.17833334
0.2579439 -0.022429906 5.6074762 0.17833334
0.26915887 -0.022429906 5.6074762 0.17833334
0.28037381 -0.022429906 5.6074762 0.17833334
-0.87096769 -0.019354837 9.6774187 0.10333334
-0.49586779 -0.01983471 9.9173555 0.10083333
-0.47603306 -0.01983471 9.9173555 0.10083333
-0.29752067 -0.01983471 9.9173555 0.10083333
-0.1173913 -0.013043478 6.521739 0.15333334
0.21290322 -0.019354837 9.6774187 0.10333334
0.40975609 -0.011707317 5.8536587 0.17083333
0.42146343 -0.011707317 5.8536587 0.17083333
0.39820629 -0.010762332 5.381166 0.18583333
0.40896863 -0.010762332 5.381166 0.18583333
0.41973096 -0.010762332 5.381166 0.18583333
0.45201793 -0.010762332 5.381166 0.18583333
-0.49586779 0 9.9173555 0.10083333
-0.47603306 0 9.9173555 0.10083333
-0.28346455 0 9.4488182 0.10583334
-0.091304347 0 6.521739 0.15333334
-0.078260869 0 6.521739 0.15333334
-0.28346455 0.018897636 9.4488182 0.10583334
-0.28346455 0.037795272 9.4488182 0.10583334
-0.2645669 0.037795272 9.4488182 0.10583334
-0.24566928 0.037795272 9.4488182 0.10583334
-0.10434783 0.026086956 6.521739 0.15333334
-0.091304347 0.026086956 6.521739 0.15333334
0.20816328 0.024489798 6.1224494 0.16333333
0.20473932 0.022748813 5.6872034 0.17583334
0.21611373 0.022748813 5.6872034 0.17583334
0.22748813 0.022748813 5.6872034 0.17583334
0.43317074 0.023414634 5.8536587 0.17083333
0.44487807 0.023414634 5.8536587 0.17083333
0.45658538 0.023414634 5.8536587 0.17083333
0.4412556 0.021524664 5.381166 0.18583333
-0.51570249 0.059504133 9.9173555 0.10083333
-0.49586779 0.059504133 9.9173555 0.10083333
0.11612903 0.058064513 9.6774187 0.10333334
0.13548386 0.058064513 9.6774187 0.10333334
-0.51570249 0.079338841 9.9173555 0.10083333
0.11612903 0.077419348 9.6774187 0.10333334
0.13548386 0.077419348 9.6774187 0.10333334
0.19591838 0.048979595 6.1224494 0.16333333
0.20473932 0.045497626 5.6872034 0.17583334
0.21611373 0.045497626 5.6872034 0.17583334
0.22748813 0.045497626 5.6872034 0.17583334
0.23886254 0.045497626 5.6872034 0.17583334
-0.39792746 0.062176164 6.2176166 0.16083333
-0.38549224 0.062176164 6.2176166 0.16083333
-0.53553718 0.099173553 9.9173555 0.10083333
-0.51570249 0.099173553 9.9173555 0.10083333
-0.47603306 0.099173553 9.9173555 0.10083333
-0.43636364 0.099173553 9.9173555 0.10083333
-0.41652894 0.099173553 9.9173555 0.10083333
0.18367349 0.061224494 6.1224494 0.16333333
0.44487807 0.058536585 5.8536587 0.17083333
-0.42279792 0.074611396 6.2176166 0.16083333
-0.43636364 0.11900827 9.9173555 0.10083333
-0.41652894 0.11900827 9.9173555 0.10083333
-0.081355929 0.12203389 10.169491 0.098333344
0.79370075 0.11338582 9.4488182 0.10583334
0.81259835 0.11338582 9.4488182 0.10583334
0.831496 0.11338582 9.4488182 0.10583334
0.85039365 0.11338582 9.4488182 0.10583334
0.86929125 0.11338582 9.4488182 0.10583334
-0.39792746 0.087046631 6.2176166 0.16083333
-0.38549224 0.087046631 6.2176166 0.16083333
-0.081355929 0.14237288 10.169491 0.098333344
0.831496 0.13228345 9.4488182 0.10583334
-0.79384613 0.14769231 9.2307692 0.10833333
-0.7753846 0.14769231 9.2307692 0.10833333
-0.49586779 0.15867768 9.9173555 0.10083333
-0.47603306 0.15867768 9.9173555 0.10083333
-0.45619836 0.15867768 9.9173555 0.10083333
-0.12203389 0.16271186 10.169491 0.098333344
0.85039365 0.15118109 9.4488182 0.10583334
-0.38549224 0.1119171 6.2176166 0.16083333
-0.49586779 0.17851239 9.9173555 0.10083333
0.30967739 0.17419353 9.6774187 0.10333334
0.85039365 0.17007872 9.4488182 0.10583334
-0.51570249 0.19834711 9.9173555 0.10083333
-0.49586779 0.19834711 9.9173555 0.10083333
0.12576419 0.1048035 5.2401748 0.19083333
0.34838706 0.19354838 9.6774187 0.10333334
0.85039365 0.18897636 9.4488182 0.10583334
0.86929125 0.18897636 9.4488182 0.10583334
0.018897636 0.207874 9.4488182 0.10583334
0.38709676 0.21290322 9.6774187 0.10333334
0.831496 0.207874 9.4488182 0.10583334
0.85039365 0.207874 9.4488182 0.10583334
0.86929125 0.207874 9.4488182 0.10583334
0.018897636 0.22677164 9.4488182 0.10583334
0.037795272 0.22677164 9.4488182 0.10583334
0.056692909 0.22677164 9.4488182 0.10583334
0.083842799 0.12576419 5.2401748 0.19083333
0.094323143 0.12576419 5.2401748 0.19083333
0.1048035 0.12576419 5.2401748 0.19083333
0.4564417 0.17668711 7.3619628 0.13583334
0.47116563 0.17668711 7.3619628 0.13583334
0.48588955 0.17668711 7.3619628 0.13583334
0.50061345 0.17668711 7.3619628 0.13583334
0.018897636 0.24566928 9.4488182 0.10583334
0.48588955 0.19141103 7.3619628 0.13583334
-0.81290317 0.27096772 9.6774187 0.10333334
0.13259669 0.18563536 6.6298342 0.15083334
0.14585635 0.18563536 6.6298342 0.15083334
0.47116563 0.20613496 7.3619628 0.13583334
0.48588955 0.20613496 7.3619628 0.13583334
0.71351349 0.22702701 8.1081076 0.12333334
0.72972965 0.22702701 8.1081076 0.12333334
0.74594587 0.22702701 8.1081076 0.12333334
0.76216209 0.22702701 8.1081076 0.12333334
-0.13548386 0.29032257 9.6774187 0.10333334
-0.11612903 0.29032257 9.6774187 0.10333334
0.71351349 0.24324323 8.1081076 0.12333334
-0.85289258 0.31735536 9.9173555 0.10083333
-0.63050842 0.32542372 10.169491 0.098333344
-0.61016947 0.32542372 10.169491 0.098333344
-0.29538462 0.29538462 9.2307692 0.10833333
-0.27692306 0.29538462 9.2307692 0.10833333
-0.25846153 0.29538462 9.2307692 0.10833333
-0.23999999 0.29538462 9.2307692 0.10833333
-0.11612903 0.30967739 9.6774187 0.10333334
0.4564417 0.23558281 7.3619628 0.13583334
-0.85289258 0.33719009 9.9173555 0.10083333
-0.83305788 0.33719009 9.9173555 0.10083333
-0.67118639 0.3457627 10.169491 0.098333344
-0.65084743 0.3457627 10.169491 0.098333344
-0.63050842 0.3457627 10.169491 0.098333344
-0.11612903 0.32903224 9.6774187 0.10333334
0.23720931 0.23720931 6.9767442 0.14333333
-0.83305788 0.35702479 9.9173555 0.10083333
-0.63050842 0.36610168 10.169491 0.098333344
-0.61016947 0.36610168 10.169491 0.098333344
-0.27692306 0.3323077 9.2307692 0.10833333
-0.25846153 0.3323077 9.2307692 0.10833333
-0.099173553 0.35702479 9.9173555 0.10083333
0 0.35702479 9.9173555 0.10083333
0.01983471 0.35702479 9.9173555 0.10083333
0.16744186 0.2511628 6.9767442 0.14333333
0.18139535 0.2511628 6.9767442 0.14333333
0.19534884 0.2511628 6.9767442 0.14333333
0.20930232 0.2511628 6.9767442 0.14333333
0.22325581 0.2511628 6.9767442 0.14333333
-0.61016947 0.38644066 10.169491 0.098333344
-0.099173553 0.37685952 9.9173555 0.10083333
-0.079338841 0.37685952 9.9173555 0.10083333
-0.059504133 0.37685952 9.9173555 0.10083333
0.039669421 0.37685952 9.9173555 0.10083333
0.36923078 0.35076922 9.2307692 0.10833333
0.3876923 0.35076922 9.2307692 0.10833333
-0.61016947 0.40677965 10.169491 0.098333344
-0.099173553 0.39669421 9.9173555 0.10083333
0.16744186 0.27906978 6.9767442 0.14333333
0.18139535 0.27906978 6.9767442 0.14333333
0.3876923 0.36923078 9.2307692 0.10833333
0.42461538 0.36923078 9.2307692 0.10833333
0.23816793 0.1832061 4.5801525 0.21833333
0.24732824 0.1832061 4.5801525 0.21833333
0.25648853 0.1832061 4.5801525 0.21833333
0.26564884 0.1832061 4.5801525 0.21833333
-0.21818182 0.41652894 9.9173555 0.10083333
-0.19834711 0.41652894 9.9173555 0.10083333
-0.53553718 0.43636364 9.9173555 0.10083333
-0.51570249 0.43636364 9.9173555 0.10083333
-0.21818182 0.43636364 9.9173555 0.10083333
0.23225805 0.42580643 9.6774187 0.10333334
0.25161287 0.42580643 9.6774187 0.10333334
0.87096769 0.42580643 9.6774187 0.10333334
0.89032251 0.42580643 9.6774187 0.10333334
-0.21818182 0.45619836 9.9173555 0.10083333
0.25161287 0.44516125 9.6774187 0.10333334
0.42514282 0.31542856 6.8571424 0.14583334
0.44919786 0.29518718 6.4171124 0.15583333
0.46203208 0.29518718 6.4171124 0.15583333
0.85161287 0.44516125 9.6774187 0.10333334
-0.83225799 0.4645161 9.6774187 0.10333334
-0.81290317 0.4645161 9.6774187 0.10333334
-0.79354835 0.4645161 9.6774187 0.10333334
-0.77419353 0.4645161 9.6774187 0.10333334
-0.75483865 0.4645161 9.6774187 0.10333334
-0.73548383 0.4645161 9.6774187 0.10333334
-0.69677413 0.4645161 9.6774187 0.10333334
-0.53553718 0.47603306 9.9173555 0.10083333
-0.51570249 0.47603306 9.9173555 0.10083333
-0.23801653 0.47603306 9.9173555 0.10083333
-0.21818182 0.47603306 9.9173555 0.10083333
0.23225805 0.4645161 9.6774187 0.10333334
0.25161287 0.4645161 9.6774187 0.10333334
0.89032251 0.4645161 9.6774187 0.10333334
0 0.49586779 9.9173555 0.10083333
0.32523361 0.28037381 5.6074762 0.17833334
0.42514282 0.34285712 6.8571424 0.14583334
0.43885711 0.34285712 6.8571424 0.14583334
0.45257139 0.34285712 6.8571424 0.14583334
0.46628568 0.34285712 6.8571424 0.14583334
0.44919786 0.32085562 6.4171124 0.15583333
0.46203208 0.32085562 6.4171124 0.15583333
-0.81290317 0.50322574 9.6774187 0.10333334
-0.69921255 0.49133855 9.4488182 0.10583334
-0.6803149 0.49133855 9.4488182 0.10583334
-0.50847453 0.52881354 10.169491 0.098333344
-0.56949151 0.54915249 10.169491 0.098333344
-0.54915249 0.54915249 10.169491 0.098333344
-0.52881354 0.54915249 10.169491 0.098333344
-0.39685038 0.5102362 9.4488182 0.10583334
-0.32125983 0.5102362 9.4488182 0.10583334
-0.30236217 0.5102362 9.4488182 0.10583334
-0.28346455 0.5102362 9.4488182 0.10583334
0 0.53553718 9.9173555 0.10083333
0.01983471 0.53553718 9.9173555 0.10083333
0.35320753 0.24452829 4.5283017 0.22083335
-0.6803149 0.5291338 9.4488182 0.10583334
-0.6774193 0.54193544 9.6774187 0.10333334
-0.65806448 0.54193544 9.6774187 0.10333334
-0.52881354 0.56949151 10.169491 0.098333344
-0.50847453 0.56949151 10.169491 0.098333344
-0.3590551 0.5291338 9.4488182 0.10583334
0.01983471 0.55537188 9.9173555 0.10083333
0.31735536 0.55537188 9.9173555 0.10083333
0.33719009 0.55537188 9.9173555 0.10083333
0.30280373 0.31401867 5.6074762 0.17833334
-0.81322318 0.57520664 9.9173555 0.10083333
-0.79338843 0.57520664 9.9173555 0.10083333
-0.6774193 0.56129026 9.6774187 0.10333334
-0.37795272 0.54803145 9.4488182 0.10583334
0.01983471 0.57520664 9.9173555 0.10083333
0.31735536 0.57520664 9.9173555 0.10083333
0.45354328 0.54803145 9.4488182 0.10583334
0.30280373 0.32523361 5.6074762 0.17833334
0.31401867 0.32523361 5.6074762 0.17833334
0.32523361 0.32523361 5.6074762 0.17833334
-0.83305788 0.59504133 9.9173555 0.10083333
-0.81322318 0.59504133 9.9173555 0.10083333
-0.65806448 0.58064514 9.6774187 0.10333334
-0.37795272 0.5669291 9.4488182 0.10583334
-0.3590551 0.5669291 9.4488182 0.10583334
-0.34015745 0.5669291 9.4488182 0.10583334
-0.32125983 0.5669291 9.4488182 0.10583334
-0.30236217 0.5669291 9.4488182 0.10583334
0.31735536 0.59504133 9.9173555 0.10083333
0.33719009 0.59504133 9.9173555 0.10083333
0.35702479 0.59504133 9.9173555 0.10083333
0.36226413 0.27169812 4.5283017 0.22083335
0.37132075 0.27169812 4.5283017 0.22083335
0.38037735 0.27169812 4.5283017 0.22083335
0.38943395 0.27169812 4.5283017 0.22083335
0.50047392 0.34123221 5.6872034 0.17583334
0.51184833 0.34123221 5.6872034 0.17583334
0.52322268 0.34123221 5.6872034 0.17583334
0.5345971 0.34123221 5.6872034 0.17583334
