# .PCD v0.7 - Point Cloud Data file format
VERSION 0.7
FIELDS x y z intensity
SIZE 4 4 4 4
TYPE F F F F
COUNT 1 1 1 1
WIDTH 1096
HEIGHT 1
VIEWPOINT 0 0 0 1 0 0 0
POINTS 1096
DATA ascii
0.7773279 -0.55384612 4.8582993 0.20583335
-0.68122274 -0.58689958 5.2401748 0.19083333
-0.67074239 -0.58689958 5.2401748 0.19083333
-0.46386552 -0.56470585 5.0420165 0.19833334
-0.23793104 -0.57931036 5.1724138 0.19333333
0.61512601 -0.56470585 5.0420165 0.19833334
0.73613441 -0.56470585 5.0420165 0.19833334
0.703125 -0.52499998 4.6875 0.21333334
0.73846149 -0.54412949 4.8582993 0.20583335
-0.67074239 -0.57641923 5.2401748 0.19083333
-0.47394955 -0.55462182 5.0420165 0.19833334
-0.46386552 -0.55462182 5.0420165 0.19833334
-0.20689656 -0.56896549 5.1724138 0.19333333
-0.1593361 -0.54771787 4.9792533 0.20083332
0.63319153 -0.56170219 5.1063833 0.19583333
0.64537811 -0.55462182 5.0420165 0.19833334
0.65546215 -0.55462182 5.0420165 0.19833334
0.73613441 -0.55462182 5.0420165 0.19833334
0.72187501 -0.515625 4.6875 0.21333334
0.73124999 -0.515625 4.6875 0.21333334
-0.70218343 -0.56593889 5.2401748 0.19083333
-0.69170308 -0.56593889 5.2401748 0.19083333
-0.68122274 -0.56593889 5.2401748 0.19083333
-0.67074239 -0.56593889 5.2401748 0.19083333
-0.25862068 -0.55862069 5.1724138 0.19333333
-0.1593361 -0.53775936 4.9792533 0.20083332
0.62297875 -0.55148941 5.1063833 0.19583333
0.72187501 -0.50625002 4.6875 0.21333334
-0.67074239 -0.55545855 5.2401748 0.19083333
-0.18921162 -0.52780086 4.9792533 0.20083332
-0.1493776 -0.52780086 4.9792533 0.20083332
0.032727271 -0.5781818 5.4545455 0.18333334
0.043636363 -0.5781818 5.4545455 0.18333334
0.054545455 -0.5781818 5.4545455 0.18333334
0.63529408 -0.53445375 5.0420165 0.19833334
0.010909091 -0.56727272 5.4545455 0.18333334
0.021818181 -0.56727272 5.4545455 0.18333334
0.66554618 -0.52436972 5.0420165 0.19833334
0.64537811 -0.51428568 5.0420165 0.19833334
0.69375002 -0.47812501 4.6875 0.21333334
-0.79672128 -0.49180326 4.9180326 0.20333333
-0.7868852 -0.49180326 4.9180326 0.20333333
0.021818181 -0.54545456 5.4545455 0.18333334
0.20425533 -0.51063836 5.1063833 0.19583333
-0.3147541 -0.48196721 4.9180326 0.20333333
0.010909091 -0.53454548 5.4545455 0.18333334
0.14482759 -0.50689656 5.1724138 0.19333333
0.1838298 -0.50042558 5.1063833 0.19583333
0.19404256 -0.50042558 5.1063833 0.19583333
0.6434043 -0.50042558 5.1063833 0.19583333
-0.33442622 -0.47213113 4.9180326 0.20333333
0.15517241 -0.49655172 5.1724138 0.19333333
0.16551724 -0.49655172 5.1724138 0.19333333
0.17586207 -0.49655172 5.1724138 0.19333333
0.1838298 -0.4902128 5.1063833 0.19583333
0.73846149 -0.46639672 4.8582993 0.20583335
0.74817806 -0.46639672 4.8582993 0.20583335
0.75789469 -0.46639672 4.8582993 0.20583335
-0.79672128 -0.46229506 4.9180326 0.20333333
-0.36393443 -0.46229506 4.9180326 0.20333333
-0.35409835 -0.46229506 4.9180326 0.20333333
-0.18053097 -0.49911502 5.3097343 0.18833333
-0.13805309 -0.49911502 5.3097343 0.18833333
-0.12743363 -0.49911502 5.3097343 0.18833333
-0.11681416 -0.49911502 5.3097343 0.18833333
0.48379448 -0.44584981 4.743083 0.21083334
0.49328062 -0.44584981 4.743083 0.21083334
0.6434043 -0.48000002 5.1063833 0.19583333
0.65361708 -0.48000002 5.1063833 0.19583333
0.6638298 -0.48000002 5.1063833 0.19583333
0.76680499 -0.46804982 4.9792533 0.20083332
0.7767635 -0.46804982 4.9792533 0.20083332
-0.79672128 -0.45245901 4.9180326 0.20333333
-0.36393443 -0.45245901 4.9180326 0.20333333
-0.35409835 -0.45245901 4.9180326 0.20333333
-0.15929203 -0.48849556 5.3097343 0.18833333
-0.14867257 -0.48849556 5.3097343 0.18833333
-0.13805309 -0.48849556 5.3097343 0.18833333
0.50276679 -0.43636364 4.743083 0.21083334
0.51225299 -0.43636364 4.743083 0.21083334
0.52173913 -0.43636364 4.743083 0.21083334
0.76680499 -0.45809129 4.9792533 0.20083332
0.75789469 -0.44696352 4.8582993 0.20583335
-0.80655736 -0.44262293 4.9180326 0.20333333
-0.79672128 -0.44262293 4.9180326 0.20333333
-0.58212769 -0.45957449 5.1063833 0.19583333
-0.36393443 -0.44262293 4.9180326 0.20333333
0.18053097 -0.4778761 5.3097343 0.18833333
0.74817806 -0.43724692 4.8582993 0.20583335
0.75789469 -0.43724692 4.8582993 0.20583335
-0.81639344 -0.43278688 4.9180326 0.20333333
-0.80655736 -0.43278688 4.9180326 0.20333333
-0.60255325 -0.44936174 5.1063833 0.19583333
-0.59234047 -0.44936174 5.1063833 0.19583333
-0.58212769 -0.44936174 5.1063833 0.19583333
0.1699115 -0.46725664 5.3097343 0.18833333
0.75272727 -0.47999999 5.4545455 0.18333334
0.7767635 -0.43817428 4.9792533 0.20083332
-0.59234047 -0.43914896 5.1063833 0.19583333
0.15929203 -0.45663714 5.3097343 0.18833333
0.1699115 -0.45663714 5.3097343 0.18833333
0.76363635 -0.46909091 5.4545455 0.18333334
0.78545457 -0.46909091 5.4545455 0.18333334
0.79636365 -0.46909091 5.4545455 0.18333334
0.786722 -0.42821577 4.9792533 0.20083332
-0.85787243 -0.42893621 5.1063833 0.19583333
-0.61276603 -0.42893621 5.1063833 0.19583333
-0.60255325 -0.42893621 5.1063833 0.19583333
-0.59234047 -0.42893621 5.1063833 0.19583333
-0.39834026 -0.41825727 4.9792533 0.20083332
-0.31034482 -0.43448275 5.1724138 0.19333333
-0.12786885 -0.41311476 4.9180326 0.20333333
-0.11803278 -0.41311476 4.9180326 0.20333333
-0.10819672 -0.41311476 4.9180326 0.20333333
0.14867257 -0.44601768 5.3097343 0.18833333
0.15929203 -0.44601768 5.3097343 0.18833333
0.78545457 -0.45818183 5.4545455 0.18333334
0.79636365 -0.45818183 5.4545455 0.18333334
-0.62297875 -0.41872343 5.1063833 0.19583333
-0.61276603 -0.41872343 5.1063833 0.19583333
-0.34137931 -0.42413792 5.1724138 0.19333333
-0.33103448 -0.42413792 5.1724138 0.19333333
-0.31034482 -0.42413792 5.1724138 0.19333333
-0.11803278 -0.40327868 4.9180326 0.20333333
0.14867257 -0.43539822 5.3097343 0.18833333
-0.87829792 -0.40851066 5.1063833 0.19583333
-0.86808515 -0.40851066 5.1063833 0.19583333
-0.85787243 -0.40851066 5.1063833 0.19583333
-0.43278688 -0.3934426 4.9180326 0.20333333
-0.27725631 -0.3465704 4.33213 0.23083334
-0.26859206 -0.3465704 4.33213 0.23083334
-0.92389375 -0.41415927 5.3097343 0.18833333
-0.41825727 -0.38838175 4.9792533 0.20083332
-0.40829876 -0.38838175 4.9792533 0.20083332
-0.90265483 -0.40353981 5.3097343 0.18833333
-0.43278688 -0.37377048 4.9180326 0.20333333
-0.42821577 -0.37842324 4.9792533 0.20083332
-0.41825727 -0.37842324 4.9792533 0.20083332
-0.40327868 -0.37377048 4.9180326 0.20333333
-0.3934426 -0.37377048 4.9180326 0.20333333
-0.13448276 -0.39310345 5.1724138 0.19333333
-0.12413793 -0.39310345 5.1724138 0.19333333
0.81702131 -0.38808513 5.1063833 0.19583333
0.82723409 -0.38808513 5.1063833 0.19583333
-0.90265483 -0.39292035 5.3097343 0.18833333
-0.43278688 -0.36393443 4.9180326 0.20333333
-0.27725631 -0.32057762 4.33213 0.23083334
-0.26859206 -0.32057762 4.33213 0.23083334
-0.12413793 -0.38275862 5.1724138 0.19333333
-0.1137931 -0.38275862 5.1724138 0.19333333
0.10236966 -0.42085305 5.6872034 0.17583334
0.83744687 -0.37787238 5.1063833 0.19583333
-0.90265483 -0.38230088 5.3097343 0.18833333
-1.0700637 -0.55031848 7.6433125 0.13083333
-1.0547771 -0.55031848 7.6433125 0.13083333
-1.0394905 -0.55031848 7.6433125 0.13083333
-1.0242039 -0.55031848 7.6433125 0.13083333
-0.58965516 -0.37241378 5.1724138 0.19333333
-0.57931036 -0.37241378 5.1724138 0.19333333
-0.13448276 -0.37241378 5.1724138 0.19333333
0.079620846 -0.40947863 5.6872034 0.17583334
0.090995252 -0.40947863 5.6872034 0.17583334
0.83744687 -0.3676596 5.1063833 0.19583333
0.84765965 -0.3676596 5.1063833 0.19583333
-0.58965516 -0.36206898 5.1724138 0.19333333
-0.57931036 -0.36206898 5.1724138 0.19333333
-0.56896549 -0.36206898 5.1724138 0.19333333
-0.13448276 -0.36206898 5.1724138 0.19333333
-0.10344828 -0.36206898 5.1724138 0.19333333
0.068246439 -0.39810425 5.6872034 0.17583334
0.079620846 -0.39810425 5.6872034 0.17583334
0.84765965 -0.35744682 5.1063833 0.19583333
0.85787243 -0.35744682 5.1063833 0.19583333
-0.60000002 -0.35172415 5.1724138 0.19333333
-0.56896549 -0.35172415 5.1724138 0.19333333
-0.12413793 -0.35172415 5.1724138 0.19333333
-0.1137931 -0.35172415 5.1724138 0.19333333
-0.10344828 -0.35172415 5.1724138 0.19333333
0.83651453 -0.33858922 4.9792533 0.20083332
0.84647304 -0.33858922 4.9792533 0.20083332
-0.54827589 -0.34137931 5.1724138 0.19333333
0.61592919 -0.35044247 5.3097343 0.18833333
0.62654865 -0.35044247 5.3097343 0.18833333
0.83651453 -0.32863072 4.9792533 0.20083332
0.86808515 -0.33702129 5.1063833 0.19583333
0.59469026 -0.33982301 5.3097343 0.18833333
0.60530972 -0.33982301 5.3097343 0.18833333
0.62654865 -0.33982301 5.3097343 0.18833333
0.75071084 -0.36398101 5.6872034 0.17583334
0.76208526 -0.36398101 5.6872034 0.17583334
0.77345967 -0.36398101 5.6872034 0.17583334
0.78483409 -0.36398101 5.6872034 0.17583334
0.84647304 -0.31867221 4.9792533 0.20083332
0.85643154 -0.31867221 4.9792533 0.20083332
-0.63103449 -0.32068965 5.1724138 0.19333333
-0.62068963 -0.32068965 5.1724138 0.19333333
-0.52710277 -0.34766352 5.6074762 0.17833334
0.78483409 -0.35260662 5.6872034 0.17583334
0.85643154 -0.3087137 4.9792533 0.20083332
-0.60504198 -0.30252099 5.0420165 0.19833334
-0.34585154 -0.31441048 5.2401748 0.19083333
0.95999998 -0.32727274 5.4545455 0.18333334
-0.5158878 -0.32523361 5.6074762 0.17833334
-0.50467288 -0.32523361 5.6074762 0.17833334
-0.35633188 -0.30393013 5.2401748 0.19083333
-0.34585154 -0.30393013 5.2401748 0.19083333
-0.3353712 -0.30393013 5.2401748 0.19083333
0.75071084 -0.3298578 5.6872034 0.17583334
0.95999998 -0.31636363 5.4545455 0.18333334
-0.63103449 -0.28965518 5.1724138 0.19333333
-0.62068963 -0.28965518 5.1724138 0.19333333
-0.50467288 -0.31401867 5.6074762 0.17833334
-0.36681223 -0.29344979 5.2401748 0.19083333
-0.35633188 -0.29344979 5.2401748 0.19083333
-0.3353712 -0.29344979 5.2401748 0.19083333
0.73274332 -0.29734513 5.3097343 0.18833333
0.69709545 -0.27883819 4.9792533 0.20083332
0.70705396 -0.27883819 4.9792533 0.20083332
0.71701247 -0.27883819 4.9792533 0.20083332
0.95999998 -0.30545455 5.4545455 0.18333334
0.97090912 -0.30545455 5.4545455 0.18333334
0.9818182 -0.30545455 5.4545455 0.18333334
-0.838938 -0.28672564 5.3097343 0.18833333
-0.61512601 -0.27226889 5.0420165 0.19833334
-0.60504198 -0.27226889 5.0420165 0.19833334
-0.59495795 -0.27226889 5.0420165 0.19833334
0.45957449 -0.27574471 5.1063833 0.19583333
0.50875574 -0.29861751 5.529954 0.18083332
0.51981568 -0.29861751 5.529954 0.18083332
0.72212386 -0.28672564 5.3097343 0.18833333
0.73274332 -0.28672564 5.3097343 0.18833333
0.74336278 -0.28672564 5.3097343 0.18833333
0.75398231 -0.28672564 5.3097343 0.18833333
0.71701247 -0.26887968 4.9792533 0.20083332
0.9981308 -0.30280373 5.6074762 0.17833334
-0.81769907 -0.27610618 5.3097343 0.18833333
-0.60000002 -0.26896551 5.1724138 0.19333333
0.42893621 -0.26553193 5.1063833 0.19583333
0.45957449 -0.26553193 5.1063833 0.19583333
0.50875574 -0.2875576 5.529954 0.18083332
1.0205606 -0.29158875 5.6074762 0.17833334
-0.84955752 -0.26548672 5.3097343 0.18833333
-0.32489082 -0.26200873 5.2401748 0.19083333
-0.31441048 -0.26200873 5.2401748 0.19083333
-0.30393013 -0.26200873 5.2401748 0.19083333
0.42893621 -0.25531918 5.1063833 0.19583333
0.43914896 -0.25531918 5.1063833 0.19583333
1.0205606 -0.28037381 5.6074762 0.17833334
1.0317756 -0.28037381 5.6074762 0.17833334
-0.84955752 -0.25486726 5.3097343 0.18833333
-0.838938 -0.25486726 5.3097343 0.18833333
-0.82831854 -0.25486726 5.3097343 0.18833333
-0.81769907 -0.25486726 5.3097343 0.18833333
-0.55462182 -0.24201679 5.0420165 0.19833334
-0.55148941 -0.2451064 5.1063833 0.19583333
-0.54127663 -0.2451064 5.1063833 0.19583333
-0.52436972 -0.24201679 5.0420165 0.19833334
-0.22909091 -0.26181817 5.4545455 0.18333334
0.42893621 -0.2451064 5.1063833 0.19583333
0.82723409 -0.2451064 5.1063833 0.19583333
0.83744687 -0.2451064 5.1063833 0.19583333
0.84765965 -0.2451064 5.1063833 0.19583333
1.0205606 -0.26915887 5.6074762 0.17833334
1.0317756 -0.26915887 5.6074762 0.17833334
-0.55148941 -0.23489363 5.1063833 0.19583333
-0.54127663 -0.23489363 5.1063833 0.19583333
-0.52436972 -0.23193276 5.0420165 0.19833334
-0.51428568 -0.23193276 5.0420165 0.19833334
0.51981568 -0.25437787 5.529954 0.18083332
0.81702131 -0.23489363 5.1063833 0.19583333
0.82723409 -0.23489363 5.1063833 0.19583333
0.83744687 -0.23489363 5.1063833 0.19583333
0.84765965 -0.23489363 5.1063833 0.19583333
-0.87634856 -0.21908714 4.9792533 0.20083332
-0.86639005 -0.21908714 4.9792533 0.20083332
0.83744687 -0.22468087 5.1063833 0.19583333
0.84765965 -0.22468087 5.1063833 0.19583333
-0.86639005 -0.20912863 4.9792533 0.20083332
-0.51428568 -0.21176469 5.0420165 0.19833334
0.04137931 -0.21724138 5.1724138 0.19333333
0.04137931 -0.20689656 5.1724138 0.19333333
0.41921398 -0.20960699 5.2401748 0.19083333
0.42969432 -0.20960699 5.2401748 0.19083333
-0.6434043 -0.19404256 5.1063833 0.19583333
0.031034483 -0.19655173 5.1724138 0.19333333
0.40873364 -0.19912665 5.2401748 0.19083333
0.41921398 -0.19912665 5.2401748 0.19083333
0.42969432 -0.19912665 5.2401748 0.19083333
-0.85643154 -0.17925312 4.9792533 0.20083332
-0.84647304 -0.17925312 4.9792533 0.20083332
0.020689655 -0.18620689 5.1724138 0.19333333
0.031034483 -0.18620689 5.1724138 0.19333333
0.40873364 -0.18864629 5.2401748 0.19083333
-0.65361708 -0.17361704 5.1063833 0.19583333
-0.6434043 -0.17361704 5.1063833 0.19583333
-0.63319153 -0.17361704 5.1063833 0.19583333
-0.62297875 -0.17361704 5.1063833 0.19583333
-0.52758622 -0.17586207 5.1724138 0.19333333
0.010344828 -0.17586207 5.1724138 0.19333333
0.020689655 -0.17586207 5.1724138 0.19333333
0.39825329 -0.17816594 5.2401748 0.19083333
0.42969432 -0.17816594 5.2401748 0.19083333
0.44017467 -0.17816594 5.2401748 0.19083333
-0.96221197 -0.17695853 5.529954 0.18083332
-0.65361708 -0.16340427 5.1063833 0.19583333
-0.6434043 -0.16340427 5.1063833 0.19583333
-0.53793103 -0.16551724 5.1724138 0.19333333
-0.52758622 -0.16551724 5.1724138 0.19333333
-0.51724136 -0.16551724 5.1724138 0.19333333
0 -0.1676856 5.2401748 0.19083333
0.0209607 -0.1676856 5.2401748 0.19083333
0.23489363 -0.16340427 5.1063833 0.19583333
0.39825329 -0.1676856 5.2401748 0.19083333
0.92936176 -0.16340427 5.1063833 0.19583333
0.93957454 -0.16340427 5.1063833 0.19583333
-0.96221197 -0.16589862 5.529954 0.18083332
-0.25531918 -0.15319151 5.1063833 0.19583333
0.0209607 -0.15720524 5.2401748 0.19083333
0.92936176 -0.15319151 5.1063833 0.19583333
0.93957454 -0.15319151 5.1063833 0.19583333
-0.56896549 -0.14482759 5.1724138 0.19333333
-0.51724136 -0.14482759 5.1724138 0.19333333
-0.27574471 -0.14297873 5.1063833 0.19583333
-0.2451064 -0.14297873 5.1063833 0.19583333
0 -0.14672489 5.2401748 0.19083333
0.23489363 -0.14297873 5.1063833 0.19583333
0.2451064 -0.14297873 5.1063833 0.19583333
1.0009478 -0.15924169 5.6872034 0.17583334
0.92936176 -0.14297873 5.1063833 0.19583333
0.93957454 -0.14297873 5.1063833 0.19583333
-0.99539173 -0.1437788 5.529954 0.18083332
-0.98433179 -0.1437788 5.529954 0.18083332
-0.74482757 -0.13448276 5.1724138 0.19333333
-0.55862069 -0.13448276 5.1724138 0.19333333
-0.51724136 -0.13448276 5.1724138 0.19333333
-0.27574471 -0.13276596 5.1063833 0.19583333
-0.26553193 -0.13276596 5.1063833 0.19583333
0.01048035 -0.13624455 5.2401748 0.19083333
0.23489363 -0.13276596 5.1063833 0.19583333
0.2451064 -0.13276596 5.1063833 0.19583333
0.35744682 -0.13276596 5.1063833 0.19583333
0.92936176 -0.13276596 5.1063833 0.19583333
0.93957454 -0.13276596 5.1063833 0.19583333
-0.75517243 -0.12413793 5.1724138 0.19333333
-0.74482757 -0.12413793 5.1724138 0.19333333
-0.72510642 -0.1225532 5.1063833 0.19583333
-0.71489364 -0.1225532 5.1063833 0.19583333
-0.27574471 -0.1225532 5.1063833 0.19583333
-0.0209607 -0.12576419 5.2401748 0.19083333
0.01048035 -0.12576419 5.2401748 0.19083333
0.30393013 -0.12576419 5.2401748 0.19083333
0.92936176 -0.1225532 5.1063833 0.19583333
0.93957454 -0.1225532 5.1063833 0.19583333
-0.75574476 -0.11234044 5.1063833 0.19583333
-0.27574471 -0.11234044 5.1063833 0.19583333
-0.23489363 -0.11234044 5.1063833 0.19583333
0.30393013 -0.11528385 5.2401748 0.19083333
0.33702129 -0.11234044 5.1063833 0.19583333
0.41872343 -0.11234044 5.1063833 0.19583333
0.56470585 -0.11092436 5.0420165 0.19833334
0.5421927 -0.087707646 3.986711 0.25083333
0.92936176 -0.11234044 5.1063833 0.19583333
0.93957454 -0.11234044 5.1063833 0.19583333
-0.75574476 -0.10212766 5.1063833 0.19583333
-0.7353192 -0.10212766 5.1063833 0.19583333
-0.23489363 -0.10212766 5.1063833 0.19583333
-0.0209607 -0.1048035 5.2401748 0.19083333
0.22468087 -0.10212766 5.1063833 0.19583333
0.31441048 -0.1048035 5.2401748 0.19083333
0.33702129 -0.10212766 5.1063833 0.19583333
0.34723407 -0.10212766 5.1063833 0.19583333
0.41872343 -0.10212766 5.1063833 0.19583333
0.53097343 -0.10619469 5.3097343 0.18833333
0.5415929 -0.10619469 5.3097343 0.18833333
0.56470585 -0.10084033 5.0420165 0.19833334
0.57478988 -0.10084033 5.0420165 0.19833334
0.5421927 -0.079734221 3.986711 0.25083333
0.55016613 -0.079734221 3.986711 0.25083333
-0.7758621 -0.093103446 5.1724138 0.19333333
-0.75574476 -0.0919149 5.1063833 0.19583333
-0.75517243 -0.093103446 5.1724138 0.19333333
0.21446811 -0.0919149 5.1063833 0.19583333
0.31441048 -0.094323143 5.2401748 0.19083333
0.32489082 -0.094323143 5.2401748 0.19083333
0.3676596 -0.0919149 5.1063833 0.19583333
0.38808513 -0.0919149 5.1063833 0.19583333
0.41872343 -0.0919149 5.1063833 0.19583333
0.53097343 -0.095575221 5.3097343 0.18833333
0.5415929 -0.095575221 5.3097343 0.18833333
0.5421927 -0.071760796 3.986711 0.25083333
0.55016613 -0.071760796 3.986711 0.25083333
0.55813956 -0.071760796 3.986711 0.25083333
-0.7758621 -0.08275862 5.1724138 0.19333333
0.43448275 -0.08275862 5.1724138 0.19333333
0.58487391 -0.080672264 5.0420165 0.19833334
0.5421927 -0.063787378 3.986711 0.25083333
0.55016613 -0.063787378 3.986711 0.25083333
0.55813956 -0.063787378 3.986711 0.25083333
-0.51428568 -0.070588231 5.0420165 0.19833334
-0.51063836 -0.071489364 5.1063833 0.19583333
-0.215625 -0.065624997 4.6875 0.21333334
0.20425533 -0.071489364 5.1063833 0.19583333
0.21446811 -0.071489364 5.1063833 0.19583333
0.43448275 -0.072413795 5.1724138 0.19333333
0.56283182 -0.074336283 5.3097343 0.18833333
-0.78638303 -0.0612766 5.1063833 0.19583333
-0.77617025 -0.0612766 5.1063833 0.19583333
-0.51428568 -0.060504198 5.0420165 0.19833334
-0.50420165 -0.060504198 5.0420165 0.19833334
-0.49411762 -0.060504198 5.0420165 0.19833334
-0.215625 -0.056249999 4.6875 0.21333334
0.20425533 -0.0612766 5.1063833 0.19583333
-0.79659581 -0.051063832 5.1063833 0.19583333
-0.78638303 -0.051063832 5.1063833 0.19583333
-0.51063836 -0.051063832 5.1063833 0.19583333
-0.4902128 -0.051063832 5.1063833 0.19583333
-0.48000002 -0.051063832 5.1063833 0.19583333
-0.38399997 -0.047999997 4.7999997 0.20833334
-0.37439999 -0.047999997 4.7999997 0.20833334
-0.36479998 -0.047999997 4.7999997 0.20833334
-0.215625 -0.046875 4.6875 0.21333334
-0.20625 -0.046875 4.6875 0.21333334
0.41379312 -0.05172414 5.1724138 0.19333333
0.44482759 -0.05172414 5.1724138 0.19333333
0.56283182 -0.053097345 5.3097343 0.18833333
0.57478988 -0.050420165 5.0420165 0.19833334
0.59495795 -0.050420165 5.0420165 0.19833334
-0.92773104 -0.040336132 5.0420165 0.19833334
-0.917647 -0.040336132 5.0420165 0.19833334
-0.51063836 -0.040851068 5.1063833 0.19583333
-0.40319997 -0.038399998 4.7999997 0.20833334
-0.39359999 -0.038399998 4.7999997 0.20833334
0.032286994 -0.043049328 5.381166 0.18583333
0.42413792 -0.04137931 5.1724138 0.19333333
0.43448275 -0.04137931 5.1724138 0.19333333
0.44482759 -0.04137931 5.1724138 0.19333333
0.5840708 -0.042477876 5.3097343 0.18833333
0.93473685 -0.050526317 6.3157897 0.15833333
-0.92773104 -0.030252099 5.0420165 0.19833334
-0.917647 -0.030252099 5.0420165 0.19833334
-0.51724136 -0.031034483 5.1724138 0.19333333
-0.50689656 -0.031034483 5.1724138 0.19333333
-0.39359999 -0.028799998 4.7999997 0.20833334
-0.38399997 -0.028799998 4.7999997 0.20833334
-0.30252099 -0.030252099 5.0420165 0.19833334
0.032286994 -0.032286994 5.381166 0.18583333
0.28235292 -0.030252099 5.0420165 0.19833334
0.29243696 -0.030252099 5.0420165 0.19833334
0.30252099 -0.030252099 5.0420165 0.19833334
0.31260502 -0.030252099 5.0420165 0.19833334
0.60530972 -0.031858407 5.3097343 0.18833333
0.61592919 -0.031858407 5.3097343 0.18833333
0.59495795 -0.030252099 5.0420165 0.19833334
0.60504198 -0.030252099 5.0420165 0.19833334
0.97263163 -0.037894737 6.3157897 0.15833333
0.96637166 -0.031858407 5.3097343 0.18833333
-0.917647 -0.020168066 5.0420165 0.19833334
-0.52401745 -0.0209607 5.2401748 0.19083333
-0.50689656 -0.020689655 5.1724138 0.19333333
-0.49655172 -0.020689655 5.1724138 0.19333333
-0.38399997 -0.019199999 4.7999997 0.20833334
-0.36479998 -0.019199999 4.7999997 0.20833334
-0.29243696 -0.020168066 5.0420165 0.19833334
-0.28235292 -0.020168066 5.0420165 0.19833334
-0.27226889 -0.020168066 5.0420165 0.19833334
0.064573988 -0.021524664 5.381166 0.18583333
0.22758621 -0.020689655 5.1724138 0.19333333
0.31260502 -0.020168066 5.0420165 0.19833334
0.93473685 -0.025263159 6.3157897 0.15833333
0.94736844 -0.025263159 6.3157897 0.15833333
0.71734315 -0.017712178 4.4280443 0.22583333
0.72619927 -0.017712178 4.4280443 0.22583333
0.73505533 -0.017712178 4.4280443 0.22583333
0.96637166 -0.021238938 5.3097343 0.18833333
-0.92773104 -0.010084033 5.0420165 0.19833334
-0.917647 -0.010084033 5.0420165 0.19833334
-0.99539173 -0.011059908 5.529954 0.18083332
-0.52035397 -0.010619469 5.3097343 0.18833333
-0.50973451 -0.010619469 5.3097343 0.18833333
-0.38399997 -0.0095999995 4.7999997 0.20833334
-0.37439999 -0.0095999995 4.7999997 0.20833334
-0.30252099 -0.010084033 5.0420165 0.19833334
-0.29243696 -0.010084033 5.0420165 0.19833334
0.043049328 -0.010762332 5.381166 0.18583333
0.22758621 -0.010344828 5.1724138 0.19333333
0.29243696 -0.010084033 5.0420165 0.19833334
0.63716811 -0.010619469 5.3097343 0.18833333
0.61512601 -0.010084033 5.0420165 0.19833334
0.73505533 -0.0088560889 4.4280443 0.22583333
-0.52401745 0 5.2401748 0.19083333
-0.51353711 0 5.2401748 0.19083333
-0.50305676 0 5.2401748 0.19083333
-0.30252099 0 5.0420165 0.19833334
0.20689656 0 5.1724138 0.19333333
0.21724138 0 5.1724138 0.19333333
0.25531918 0 5.1063833 0.19583333
0.26553193 0 5.1063833 0.19583333
0.28235292 0 5.0420165 0.19833334
0.63716811 0 5.3097343 0.18833333
0.61512601 0 5.0420165 0.19833334
-0.96221197 0.011059908 5.529954 0.18083332
-0.52401745 0.01048035 5.2401748 0.19083333
-0.52035397 0.010619469 5.3097343 0.18833333
-0.30252099 0.010084033 5.0420165 0.19833334
-0.29243696 0.010084033 5.0420165 0.19833334
0.20689656 0.010344828 5.1724138 0.19333333
0.64778757 0.010619469 5.3097343 0.18833333
0.65840703 0.010619469 5.3097343 0.18833333
-0.99539173 0.022119816 5.529954 0.18083332
-0.53097343 0.021238938 5.3097343 0.18833333
-0.37439999 0.019199999 4.7999997 0.20833334
-0.30252099 0.020168066 5.0420165 0.19833334
0.33277309 0.020168066 5.0420165 0.19833334
0.34285712 0.020168066 5.0420165 0.19833334
-0.98433179 0.033179723 5.529954 0.18083332
-0.36562499 0.028124999 4.6875 0.21333334
-0.30252099 0.030252099 5.0420165 0.19833334
0.26553193 0.0306383 5.1063833 0.19583333
0.27574471 0.0306383 5.1063833 0.19583333
0.34285712 0.030252099 5.0420165 0.19833334
0.35294116 0.030252099 5.0420165 0.19833334
0.36302519 0.030252099 5.0420165 0.19833334
0.80727273 0.032727271 5.4545455 0.18333334
0.81818181 0.032727271 5.4545455 0.18333334
-0.36562499 0.037500001 4.6875 0.21333334
-0.30252099 0.040336132 5.0420165 0.19833334
-0.23999998 0.038399998 4.7999997 0.20833334
-0.23039998 0.038399998 4.7999997 0.20833334
-0.22079998 0.038399998 4.7999997 0.20833334
0.22468087 0.040851068 5.1063833 0.19583333
0.34285712 0.040336132 5.0420165 0.19833334
0.35294116 0.040336132 5.0420165 0.19833334
0.36302519 0.040336132 5.0420165 0.19833334
0.80727273 0.043636363 5.4545455 0.18333334
0.81818181 0.043636363 5.4545455 0.18333334
0.82909089 0.043636363 5.4545455 0.18333334
-0.36562499 0.046875 4.6875 0.21333334
-0.30252099 0.050420165 5.0420165 0.19833334
-0.29243696 0.050420165 5.0420165 0.19833334
-0.22079998 0.047999997 4.7999997 0.20833334
0.84000003 0.054545455 5.4545455 0.18333334
-0.53793103 0.062068965 5.1724138 0.19333333
-0.52758622 0.062068965 5.1724138 0.19333333
-0.36562499 0.056249999 4.6875 0.21333334
-0.30252099 0.060504198 5.0420165 0.19833334
-0.22079998 0.057599995 4.7999997 0.20833334
-0.80707961 0.074336283 5.3097343 0.18833333
-0.53793103 0.072413795 5.1724138 0.19333333
-0.52758622 0.072413795 5.1724138 0.19333333
-0.36562499 0.065624997 4.6875 0.21333334
0.12 0.076363638 5.4545455 0.18333334
0.15272728 0.076363638 5.4545455 0.18333334
0.2451064 0.071489364 5.1063833 0.19583333
0.25531918 0.071489364 5.1063833 0.19583333
0.38808513 0.071489364 5.1063833 0.19583333
0.39829791 0.071489364 5.1063833 0.19583333
0.40851066 0.071489364 5.1063833 0.19583333
-0.54827589 0.08275862 5.1724138 0.19333333
-0.52758622 0.08275862 5.1724138 0.19333333
-0.052401748 0.083842799 5.2401748 0.19083333
0.10909091 0.087272726 5.4545455 0.18333334
0.12 0.087272726 5.4545455 0.18333334
0.15272728 0.087272726 5.4545455 0.18333334
0.37787238 0.081702136 5.1063833 0.19583333
0.38808513 0.081702136 5.1063833 0.19583333
0.39829791 0.081702136 5.1063833 0.19583333
0.40851066 0.081702136 5.1063833 0.19583333
0.41872343 0.081702136 5.1063833 0.19583333
0.70588231 0.080672264 5.0420165 0.19833334
0.71596634 0.080672264 5.0420165 0.19833334
-0.89999998 0.093103446 5.1724138 0.19333333
-0.81769907 0.095575221 5.3097343 0.18833333
-0.55862069 0.093103446 5.1724138 0.19333333
-0.52758622 0.093103446 5.1724138 0.19333333
-0.43361342 0.090756297 5.0420165 0.19833334
-0.052401748 0.094323143 5.2401748 0.19083333
0.10909091 0.098181821 5.4545455 0.18333334
0.2451064 0.0919149 5.1063833 0.19583333
0.25531918 0.0919149 5.1063833 0.19583333
0.30355731 0.085375495 4.743083 0.21083334
0.31304348 0.085375495 4.743083 0.21083334
0.37787238 0.0919149 5.1063833 0.19583333
0.71596634 0.090756297 5.0420165 0.19833334
-0.89999998 0.10344828 5.1724138 0.19333333
-0.69446814 0.10212766 5.1063833 0.19583333
-0.57641923 0.1048035 5.2401748 0.19083333
-0.55862069 0.10344828 5.1724138 0.19333333
-0.53793103 0.10344828 5.1724138 0.19333333
-0.52758622 0.10344828 5.1724138 0.19333333
-0.43361342 0.10084033 5.0420165 0.19833334
-0.42352939 0.10084033 5.0420165 0.19833334
0.087272726 0.10909091 5.4545455 0.18333334
0.13090909 0.10909091 5.4545455 0.18333334
0.22468087 0.10212766 5.1063833 0.19583333
0.23489363 0.10212766 5.1063833 0.19583333
0.25531918 0.10212766 5.1063833 0.19583333
0.26553193 0.10212766 5.1063833 0.19583333
0.30355731 0.094861656 4.743083 0.21083334
0.31304348 0.094861656 4.743083 0.21083334
0.71596634 0.10084033 5.0420165 0.19833334
0.72605038 0.10084033 5.0420165 0.19833334
0.73613441 0.10084033 5.0420165 0.19833334
0.74621844 0.10084033 5.0420165 0.19833334
-0.7353192 0.11234044 5.1063833 0.19583333
-0.72510642 0.11234044 5.1063833 0.19583333
-0.71489364 0.11234044 5.1063833 0.19583333
-0.70468092 0.11234044 5.1063833 0.19583333
-0.43361342 0.11092436 5.0420165 0.19833334
-0.42352939 0.11092436 5.0420165 0.19833334
-0.37241378 0.1137931 5.1724138 0.19333333
0.19065419 0.12336448 5.6074762 0.17833334
0.20186915 0.12336448 5.6074762 0.17833334
0.2130841 0.12336448 5.6074762 0.17833334
0.421875 0.103125 4.6875 0.21333334
0.43125001 0.103125 4.6875 0.21333334
0.44062501 0.103125 4.6875 0.21333334
0.57478988 0.11092436 5.0420165 0.19833334
0.71596634 0.11092436 5.0420165 0.19833334
0.72605038 0.11092436 5.0420165 0.19833334
0.73613441 0.11092436 5.0420165 0.19833334
-0.91034484 0.12413793 5.1724138 0.19333333
-0.89999998 0.12413793 5.1724138 0.19333333
-0.88965517 0.12413793 5.1724138 0.19333333
-0.72510642 0.1225532 5.1063833 0.19583333
-0.70468092 0.1225532 5.1063833 0.19583333
-0.43361342 0.1210084 5.0420165 0.19833334
-0.42352939 0.1210084 5.0420165 0.19833334
-0.28799999 0.11519999 4.7999997 0.20833334
0.16822429 0.13457943 5.6074762 0.17833334
0.421875 0.1125 4.6875 0.21333334
0.46978727 0.1225532 5.1063833 0.19583333
0.48000002 0.1225532 5.1063833 0.19583333
0.4902128 0.1225532 5.1063833 0.19583333
0.57641923 0.12576419 5.2401748 0.19083333
0.85643154 0.11950208 4.9792533 0.20083332
0.86639005 0.11950208 4.9792533 0.20083332
0.87634856 0.11950208 4.9792533 0.20083332
-0.91034484 0.13448276 5.1724138 0.19333333
-0.87931037 0.13448276 5.1724138 0.19333333
-0.43361342 0.13109243 5.0420165 0.19833334
-0.42352939 0.13109243 5.0420165 0.19833334
-0.28799999 0.12479999 4.7999997 0.20833334
0.56593889 0.13624455 5.2401748 0.19083333
0.57641923 0.13624455 5.2401748 0.19083333
0.87634856 0.12946059 4.9792533 0.20083332
-0.38275862 0.14482759 5.1724138 0.19333333
-0.37241378 0.14482759 5.1724138 0.19333333
-0.36206898 0.14482759 5.1724138 0.19333333
-0.29759997 0.1344 4.7999997 0.20833334
-0.28799999 0.1344 4.7999997 0.20833334
-0.27839997 0.1344 4.7999997 0.20833334
-0.12946059 0.13941909 4.9792533 0.20083332
0.17943925 0.15700933 5.6074762 0.17833334
0.57641923 0.14672489 5.2401748 0.19083333
0.58689958 0.14672489 5.2401748 0.19083333
0.93451327 0.14867257 5.3097343 0.18833333
0.88630706 0.13941909 4.9792533 0.20083332
-0.88965517 0.15517241 5.1724138 0.19333333
-0.87931037 0.15517241 5.1724138 0.19333333
-0.82794762 0.15720524 5.2401748 0.19083333
-0.81746727 0.15720524 5.2401748 0.19083333
-0.80698693 0.15720524 5.2401748 0.19083333
-0.50042558 0.15319151 5.1063833 0.19583333
-0.12946059 0.1493776 4.9792533 0.20083332
0.31034482 0.15517241 5.1724138 0.19333333
0.46978727 0.15319151 5.1063833 0.19583333
0.4902128 0.15319151 5.1063833 0.19583333
0.58689958 0.15720524 5.2401748 0.19083333
0.59737992 0.15720524 5.2401748 0.19083333
0.6434043 0.15319151 5.1063833 0.19583333
0.65361708 0.15319151 5.1063833 0.19583333
0.68425536 0.15319151 5.1063833 0.19583333
0.78655457 0.1512605 5.0420165 0.19833334
0.80672264 0.1512605 5.0420165 0.19833334
0.81680667 0.1512605 5.0420165 0.19833334
-0.95115209 0.17695853 5.529954 0.18083332
-0.94009215 0.17695853 5.529954 0.18083332
-0.91797239 0.17695853 5.529954 0.18083332
-0.90691245 0.17695853 5.529954 0.18083332
-0.82794762 0.1676856 5.2401748 0.19083333
-0.81746727 0.1676856 5.2401748 0.19083333
-0.4902128 0.16340427 5.1063833 0.19583333
-0.17925312 0.1593361 4.9792533 0.20083332
-0.12946059 0.1593361 4.9792533 0.20083332
0.31034482 0.16551724 5.1724138 0.19333333
0.34137931 0.16551724 5.1724138 0.19333333
0.6434043 0.16340427 5.1063833 0.19583333
0.65361708 0.16340427 5.1063833 0.19583333
0.6638298 0.16340427 5.1063833 0.19583333
0.95575219 0.1699115 5.3097343 0.18833333
-0.93084103 0.19065419 5.6074762 0.17833334
-0.50042558 0.17361704 5.1063833 0.19583333
-0.4902128 0.17361704 5.1063833 0.19583333
-0.13941909 0.16929461 4.9792533 0.20083332
-0.12946059 0.16929461 4.9792533 0.20083332
0.31034482 0.17586207 5.1724138 0.19333333
0.78655457 0.17142856 5.0420165 0.19833334
0.79663861 0.17142856 5.0420165 0.19833334
0.80672264 0.17142856 5.0420165 0.19833334
0.96637166 0.18053097 5.3097343 0.18833333
-0.94009215 0.19907834 5.529954 0.18083332
-0.60504198 0.18151259 5.0420165 0.19833334
-0.59495795 0.18151259 5.0420165 0.19833334
-0.58487391 0.18151259 5.0420165 0.19833334
-0.57478988 0.18151259 5.0420165 0.19833334
-0.035121951 0.21073171 5.8536587 0.17083333
-0.023414634 0.21073171 5.8536587 0.17083333
0.31034482 0.18620689 5.1724138 0.19333333
0.78655457 0.18151259 5.0420165 0.19833334
0.79663861 0.18151259 5.0420165 0.19833334
0.80672264 0.18151259 5.0420165 0.19833334
-0.59495795 0.19159663 5.0420165 0.19833334
-0.60000002 0.19655173 5.1724138 0.19333333
-0.53106385 0.19404256 5.1063833 0.19583333
-0.52085108 0.19404256 5.1063833 0.19583333
-0.51063836 0.19404256 5.1063833 0.19583333
-0.16929461 0.18921162 4.9792533 0.20083332
0 0.22243904 5.8536587 0.17083333
0.32068965 0.19655173 5.1724138 0.19333333
0.77647054 0.19159663 5.0420165 0.19833334
-0.90841115 0.22429904 5.6074762 0.17833334
-0.60000002 0.20689656 5.1724138 0.19333333
-0.53106385 0.20425533 5.1063833 0.19583333
-0.52085108 0.20425533 5.1063833 0.19583333
-0.17925312 0.19917013 4.9792533 0.20083332
0 0.23414634 5.8536587 0.17083333
0.13109243 0.20168066 5.0420165 0.19833334
0.14117646 0.20168066 5.0420165 0.19833334
0.1512605 0.20168066 5.0420165 0.19833334
0.31034482 0.20689656 5.1724138 0.19333333
0.75630248 0.20168066 5.0420165 0.19833334
0.76638651 0.20168066 5.0420165 0.19833334
0.77647054 0.20168066 5.0420165 0.19833334
0.1210084 0.21176469 5.0420165 0.19833334
0.37168139 0.22300884 5.3097343 0.18833333
0.38230088 0.22300884 5.3097343 0.18833333
0.39292035 0.22300884 5.3097343 0.18833333
0.45663714 0.22300884 5.3097343 0.18833333
0.46725664 0.22300884 5.3097343 0.18833333
1.0317756 0.235514 5.6074762 0.17833334
-0.56896549 0.22758621 5.1724138 0.19333333
-0.13624455 0.23056769 5.2401748 0.19083333
0.010212767 0.22468087 5.1063833 0.19583333
0.020425534 0.22468087 5.1063833 0.19583333
0.37168139 0.23362832 5.3097343 0.18833333
0.38230088 0.23362832 5.3097343 0.18833333
0.77647054 0.22184873 5.0420165 0.19833334
0.78655457 0.22184873 5.0420165 0.19833334
0.98691583 0.24672896 5.6074762 0.17833334
1.0317756 0.24672896 5.6074762 0.17833334
-0.58965516 0.23793104 5.1724138 0.19333333
-0.57931036 0.23793104 5.1724138 0.19333333
-0.14672489 0.24104804 5.2401748 0.19083333
-0.13624455 0.24104804 5.2401748 0.19083333
0.0306383 0.23489363 5.1063833 0.19583333
0.13109243 0.23193276 5.0420165 0.19833334
0.14117646 0.23193276 5.0420165 0.19833334
0.1512605 0.23193276 5.0420165 0.19833334
0.65726143 0.22904564 4.9792533 0.20083332
0.66721994 0.22904564 4.9792533 0.20083332
0.67717844 0.22904564 4.9792533 0.20083332
0.68713695 0.22904564 4.9792533 0.20083332
0.79663861 0.23193276 5.0420165 0.19833334
0.80672264 0.23193276 5.0420165 0.19833334
0.98691583 0.2579439 5.6074762 0.17833334
0.9981308 0.2579439 5.6074762 0.17833334
0.92936176 0.23489363 5.1063833 0.19583333
1.0317756 0.2579439 5.6074762 0.17833334
-0.15720524 0.25152838 5.2401748 0.19083333
-0.13624455 0.25152838 5.2401748 0.19083333
0.020425534 0.2451064 5.1063833 0.19583333
0.0306383 0.2451064 5.1063833 0.19583333
0.051063832 0.2451064 5.1063833 0.19583333
0.13109243 0.24201679 5.0420165 0.19833334
0.14117646 0.24201679 5.0420165 0.19833334
0.16134453 0.24201679 5.0420165 0.19833334
0.65726143 0.23900416 4.9792533 0.20083332
0.66721994 0.23900416 4.9792533 0.20083332
0.80672264 0.24201679 5.0420165 0.19833334
0.9089362 0.2451064 5.1063833 0.19583333
1.0317756 0.26915887 5.6074762 0.17833334
-0.84705877 0.25210083 5.0420165 0.19833334
-0.83697474 0.25210083 5.0420165 0.19833334
-0.58965516 0.25862068 5.1724138 0.19333333
-0.12576419 0.26200873 5.2401748 0.19083333
0.020425534 0.25531918 5.1063833 0.19583333
0.0306383 0.25531918 5.1063833 0.19583333
0.4778761 0.26548672 5.3097343 0.18833333
0.65726143 0.24896267 4.9792533 0.20083332
-0.84705877 0.26218486 5.0420165 0.19833334
-0.60000002 0.26896551 5.1724138 0.19333333
0.020425534 0.26553193 5.1063833 0.19583333
0.68275863 0.26896551 5.1724138 0.19333333
-0.84705877 0.27226889 5.0420165 0.19833334
-0.11528385 0.28296944 5.2401748 0.19083333
-0.1048035 0.28296944 5.2401748 0.19083333
0.65726143 0.26887968 4.9792533 0.20083332
0.87731087 0.27226889 5.0420165 0.19833334
0.89747894 0.27226889 5.0420165 0.19833334
-0.84705877 0.28235292 5.0420165 0.19833334
0.64730293 0.27883819 4.9792533 0.20083332
0.68275863 0.28965518 5.1724138 0.19333333
0.88739491 0.28235292 5.0420165 0.19833334
0.89626557 0.27883819 4.9792533 0.20083332
0.90622407 0.27883819 4.9792533 0.20083332
-0.84705877 0.29243696 5.0420165 0.19833334
-0.2451064 0.29617023 5.1063833 0.19583333
-0.23489363 0.29617023 5.1063833 0.19583333
-0.031034483 0.30000001 5.1724138 0.19333333
-0.020689655 0.30000001 5.1724138 0.19333333
-0.010344828 0.30000001 5.1724138 0.19333333
0.33103448 0.30000001 5.1724138 0.19333333
0.48849556 0.30796459 5.3097343 0.18833333
0.66721994 0.28879669 4.9792533 0.20083332
0.88630706 0.28879669 4.9792533 0.20083332
-0.34615383 0.34615383 5.7692304 0.17333335
-0.26181817 0.32727274 5.4545455 0.18333334
-0.25090909 0.32727274 5.4545455 0.18333334
-0.13941909 0.2987552 4.9792533 0.20083332
-0.12946059 0.2987552 4.9792533 0.20083332
-0.13271889 0.33179724 5.529954 0.18083332
-0.010344828 0.31034482 5.1724138 0.19333333
0 0.31034482 5.1724138 0.19333333
0.4778761 0.31858405 5.3097343 0.18833333
0.48849556 0.31858405 5.3097343 0.18833333
0.49911502 0.31858405 5.3097343 0.18833333
0.50973451 0.31858405 5.3097343 0.18833333
0.69310343 0.31034482 5.1724138 0.19333333
0.88739491 0.30252099 5.0420165 0.19833334
-0.26553193 0.31659576 5.1063833 0.19583333
-0.27272728 0.33818182 5.4545455 0.18333334
-0.26181817 0.33818182 5.4545455 0.18333334
-0.099585064 0.3087137 4.9792533 0.20083332
0 0.32068965 5.1724138 0.19333333
0.21818182 0.33818182 5.4545455 0.18333334
0.34137931 0.32068965 5.1724138 0.19333333
0.52035397 0.32920352 5.3097343 0.18833333
0.65172416 0.32068965 5.1724138 0.19333333
0.90622407 0.3087137 4.9792533 0.20083332
-0.86722684 0.32268906 5.0420165 0.19833334
-0.85714281 0.32268906 5.0420165 0.19833334
-0.84705877 0.32268906 5.0420165 0.19833334
-0.62297875 0.32680854 5.1063833 0.19583333
-0.47462687 0.28656718 4.477612 0.22333333
-0.46567166 0.28656718 4.477612 0.22333333
-0.41825727 0.31867221 4.9792533 0.20083332
-0.35769227 0.36923075 5.7692304 0.17333335
-0.34615383 0.36923075 5.7692304 0.17333335
-0.26553193 0.32680854 5.1063833 0.19583333
-0.23999999 0.3490909 5.4545455 0.18333334
-0.1437788 0.35391706 5.529954 0.18083332
-0.13271889 0.35391706 5.529954 0.18083332
-0.12165899 0.35391706 5.529954 0.18083332
0.095306858 0.27725631 4.33213 0.23083334
0.21818182 0.3490909 5.4545455 0.18333334
0.34137931 0.33103448 5.1724138 0.19333333
0.48849556 0.33982301 5.3097343 0.18833333
0.52035397 0.33982301 5.3097343 0.18833333
0.62068963 0.33103448 5.1724138 0.19333333
0.63103449 0.33103448 5.1724138 0.19333333
0.6413793 0.33103448 5.1724138 0.19333333
0.65172416 0.33103448 5.1724138 0.19333333
0.95999998 0.3490909 5.4545455 0.18333334
-0.86722684 0.33277309 5.0420165 0.19833334
-0.85714281 0.33277309 5.0420165 0.19833334
-0.84705877 0.33277309 5.0420165 0.19833334
-0.65361708 0.33702129 5.1063833 0.19583333
-0.6434043 0.33702129 5.1063833 0.19583333
-0.62297875 0.33702129 5.1063833 0.19583333
-0.48358211 0.29552239 4.477612 0.22333333
-0.47462687 0.29552239 4.477612 0.22333333
-0.42821577 0.32863072 4.9792533 0.20083332
-0.41825727 0.32863072 4.9792533 0.20083332
-0.40829876 0.32863072 4.9792533 0.20083332
-0.39834026 0.32863072 4.9792533 0.20083332
-0.35769227 0.38076919 5.7692304 0.17333335
-0.23999999 0.36000001 5.4545455 0.18333334
-0.13271889 0.36497697 5.529954 0.18083332
-0.12165899 0.36497697 5.529954 0.18083332
0 0.33277309 5.0420165 0.19833334
0.086642601 0.28592059 4.33213 0.23083334
0.095306858 0.28592059 4.33213 0.23083334
0.10397112 0.28592059 4.33213 0.23083334
0.11263538 0.28592059 4.33213 0.23083334
0.20727272 0.36000001 5.4545455 0.18333334
0.21818182 0.36000001 5.4545455 0.18333334
0.34137931 0.34137931 5.1724138 0.19333333
0.6413793 0.34137931 5.1724138 0.19333333
0.97090912 0.36000001 5.4545455 0.18333334
-0.87731087 0.34285712 5.0420165 0.19833334
-0.86722684 0.34285712 5.0420165 0.19833334
-0.84705877 0.34285712 5.0420165 0.19833334
-0.83697474 0.34285712 5.0420165 0.19833334
-0.67404258 0.34723407 5.1063833 0.19583333
-0.63319153 0.34723407 5.1063833 0.19583333
-0.62297875 0.34723407 5.1063833 0.19583333
-0.44813278 0.33858922 4.9792533 0.20083332
-0.11950208 0.33858922 4.9792533 0.20083332
0 0.34285712 5.0420165 0.19833334
0.25090909 0.37090909 5.4545455 0.18333334
0.34137931 0.35172415 5.1724138 0.19333333
-0.62297875 0.35744682 5.1063833 0.19583333
-0.10954357 0.34854773 4.9792533 0.20083332
0 0.35744682 5.1063833 0.19583333
0.010212767 0.35744682 5.1063833 0.19583333
0.020425534 0.35744682 5.1063833 0.19583333
0.34137931 0.36206898 5.1724138 0.19333333
0.35172415 0.36206898 5.1724138 0.19333333
0.97090912 0.38181818 5.4545455 0.18333334
0.99272728 0.38181818 5.4545455 0.18333334
-0.83697474 0.36302519 5.0420165 0.19833334
-0.6434043 0.3676596 5.1063833 0.19583333
-0.62297875 0.3676596 5.1063833 0.19583333
-0.11528385 0.37729257 5.2401748 0.19083333
-0.1048035 0.37729257 5.2401748 0.19083333
-0.010084033 0.36302519 5.0420165 0.19833334
0 0.3676596 5.1063833 0.19583333
0.010084033 0.36302519 5.0420165 0.19833334
0.020168066 0.36302519 5.0420165 0.19833334
0.97090912 0.39272729 5.4545455 0.18333334
0.9818182 0.39272729 5.4545455 0.18333334
-0.76401377 0.30726641 4.1522489 0.24083334
-0.75570929 0.30726641 4.1522489 0.24083334
-0.82689071 0.37310922 5.0420165 0.19833334
-0.62068963 0.38275862 5.1724138 0.19333333
-0.11528385 0.38777295 5.2401748 0.19083333
-0.1048035 0.38777295 5.2401748 0.19083333
0.41344535 0.37310922 5.0420165 0.19833334
0.42352939 0.37310922 5.0420165 0.19833334
0.43361342 0.37310922 5.0420165 0.19833334
0.69383883 0.42085305 5.6872034 0.17583334
0.70521325 0.42085305 5.6872034 0.17583334
0.97090912 0.40363637 5.4545455 0.18333334
0.9818182 0.40363637 5.4545455 0.18333334
-0.77202797 0.31888112 4.1958041 0.23833334
-0.76363635 0.31888112 4.1958041 0.23833334
-0.7850467 0.4261682 5.6074762 0.17833334
-0.77383173 0.4261682 5.6074762 0.17833334
-0.76261675 0.4261682 5.6074762 0.17833334
-0.62068963 0.39310345 5.1724138 0.19333333
-0.030252099 0.38319325 5.0420165 0.19833334
0.40336132 0.38319325 5.0420165 0.19833334
0.43361342 0.38319325 5.0420165 0.19833334
0.69383883 0.43222746 5.6872034 0.17583334
-0.77202797 0.32727271 4.1958041 0.23833334
-0.79626161 0.43738315 5.6074762 0.17833334
-0.7850467 0.43738315 5.6074762 0.17833334
-0.76261675 0.43738315 5.6074762 0.17833334
-0.61276603 0.39829791 5.1063833 0.19583333
-0.056916997 0.36996049 4.743083 0.21083334
-0.047430828 0.36996049 4.743083 0.21083334
0.41344535 0.39327729 5.0420165 0.19833334
0.50042558 0.39829791 5.1063833 0.19583333
-0.77202797 0.33566433 4.1958041 0.23833334
-0.76363635 0.33566433 4.1958041 0.23833334
-0.7850467 0.44859809 5.6074762 0.17833334
-0.62068963 0.41379312 5.1724138 0.19333333
-0.056916997 0.37944663 4.743083 0.21083334
0.42352939 0.40336132 5.0420165 0.19833334
0.4902128 0.40851066 5.1063833 0.19583333
0.50042558 0.40851066 5.1063833 0.19583333
0.51063836 0.40851066 5.1063833 0.19583333
0.52085108 0.40851066 5.1063833 0.19583333
0.67109001 0.45497626 5.6872034 0.17583334
0.68246442 0.45497626 5.6872034 0.17583334
0.69383883 0.45497626 5.6872034 0.17583334
0.65101212 0.38866395 4.8582993 0.20583335
0.97090912 0.43636364 5.4545455 0.18333334
-0.77202797 0.34405595 4.1958041 0.23833334
-0.76363635 0.34405595 4.1958041 0.23833334
-0.84955752 0.43539822 5.3097343 0.18833333
-0.838938 0.43539822 5.3097343 0.18833333
-0.82831854 0.43539822 5.3097343 0.18833333
-0.61034483 0.42413792 5.1724138 0.19333333
-0.085375495 0.38893279 4.743083 0.21083334
0.42893621 0.41872343 5.1063833 0.19583333
0.43914896 0.41872343 5.1063833 0.19583333
0.4902128 0.41872343 5.1063833 0.19583333
0.50042558 0.41872343 5.1063833 0.19583333
0.64129549 0.39838055 4.8582993 0.20583335
0.65101212 0.39838055 4.8582993 0.20583335
-0.76363635 0.35244754 4.1958041 0.23833334
-0.82831854 0.44601768 5.3097343 0.18833333
-0.63734442 0.41825727 4.9792533 0.20083332
-0.61034483 0.43448275 5.1724138 0.19333333
-0.60000002 0.43448275 5.1724138 0.19333333
-0.24104804 0.44017467 5.2401748 0.19083333
-0.22008733 0.44017467 5.2401748 0.19083333
-0.20960699 0.44017467 5.2401748 0.19083333
-0.085375495 0.39841896 4.743083 0.21083334
-0.056916997 0.39841896 4.743083 0.21083334
-0.66206896 0.44482759 5.1724138 0.19333333
-0.60000002 0.44482759 5.1724138 0.19333333
-0.23056769 0.45065504 5.2401748 0.19083333
-0.22008733 0.45065504 5.2401748 0.19083333
-0.085375495 0.40790513 4.743083 0.21083334
-0.075889327 0.40790513 4.743083 0.21083334
-0.047430828 0.40790513 4.743083 0.21083334
0.23900416 0.42821577 4.9792533 0.20083332
0.24896267 0.42821577 4.9792533 0.20083332
0.25892118 0.42821577 4.9792533 0.20083332
0.87359995 0.41279998 4.7999997 0.20833334
-0.66206896 0.45517242 5.1724138 0.19333333
-0.62068963 0.45517242 5.1724138 0.19333333
-0.55862069 0.45517242 5.1724138 0.19333333
-0.54827589 0.45517242 5.1724138 0.19333333
-0.53793103 0.45517242 5.1724138 0.19333333
-0.23056769 0.46113539 5.2401748 0.19083333
-0.22008733 0.46113539 5.2401748 0.19083333
-0.040851068 0.44936174 5.1063833 0.19583333
-0.0306383 0.44936174 5.1063833 0.19583333
0.046153843 0.50769228 5.7692304 0.17333335
0.057692304 0.50769228 5.7692304 0.17333335
0.069230765 0.50769228 5.7692304 0.17333335
0.43914896 0.44936174 5.1063833 0.19583333
0.62186229 0.42753035 4.8582993 0.20583335
0.87359995 0.42239997 4.7999997 0.20833334
-0.66206896 0.46551725 5.1724138 0.19333333
-0.62738591 0.44813278 4.9792533 0.20083332
-0.61742741 0.44813278 4.9792533 0.20083332
-0.57931036 0.46551725 5.1724138 0.19333333
-0.53793103 0.46551725 5.1724138 0.19333333
-0.23056769 0.47161573 5.2401748 0.19083333
0.25892118 0.44813278 4.9792533 0.20083332
0.43914896 0.45957449 5.1063833 0.19583333
0.44936174 0.45957449 5.1063833 0.19583333
0.45957449 0.45957449 5.1063833 0.19583333
0.60242909 0.43724692 4.8582993 0.20583335
0.61214572 0.43724692 4.8582993 0.20583335
0.62186229 0.43724692 4.8582993 0.20583335
0.87359995 0.43199998 4.7999997 0.20833334
-0.64730293 0.45809129 4.9792533 0.20083332
-0.66206896 0.47586209 5.1724138 0.19333333
-0.62738591 0.45809129 4.9792533 0.20083332
-0.56896549 0.47586209 5.1724138 0.19333333
-0.22758621 0.47586209 5.1724138 0.19333333
-0.0306383 0.46978727 5.1063833 0.19583333
-0.020425534 0.46978727 5.1063833 0.19583333
0.069230765 0.53076917 5.7692304 0.17333335
0.25892118 0.45809129 4.9792533 0.20083332
0.61214572 0.44696352 4.8582993 0.20583335
0.62186229 0.44696352 4.8582993 0.20583335
-0.87634856 0.46804982 4.9792533 0.20083332
-0.85643154 0.46804982 4.9792533 0.20083332
-0.82909089 0.51272726 5.4545455 0.18333334
-0.56896549 0.48620689 5.1724138 0.19333333
-0.53793103 0.48620689 5.1724138 0.19333333
-0.23793104 0.48620689 5.1724138 0.19333333
-0.22758621 0.48620689 5.1724138 0.19333333
0.069230765 0.54230767 5.7692304 0.17333335
0.080769226 0.54230767 5.7692304 0.17333335
0.25892118 0.46804982 4.9792533 0.20083332
-0.85643154 0.47800833 4.9792533 0.20083332
-0.81659752 0.47800833 4.9792533 0.20083332
-0.82909089 0.52363634 5.4545455 0.18333334
-0.81818181 0.52363634 5.4545455 0.18333334
-0.79636365 0.52363634 5.4545455 0.18333334
-0.53793103 0.49655172 5.1724138 0.19333333
0.24896267 0.47800833 4.9792533 0.20083332
0.25892118 0.47800833 4.9792533 0.20083332
0.87359995 0.46079996 4.7999997 0.20833334
-0.83651453 0.48796684 4.9792533 0.20083332
-0.82655603 0.48796684 4.9792533 0.20083332
-0.81659752 0.48796684 4.9792533 0.20083332
-0.55862069 0.50689656 5.1724138 0.19333333
-0.52758622 0.50689656 5.1724138 0.19333333
-0.24827586 0.50689656 5.1724138 0.19333333
-0.22758621 0.50689656 5.1724138 0.19333333
-0.01048035 0.51353711 5.2401748 0.19083333
0 0.51353711 5.2401748 0.19083333
-0.85643154 0.49792534 4.9792533 0.20083332
-0.55862069 0.51724136 5.1724138 0.19333333
-0.52758622 0.51724136 5.1724138 0.19333333
0 0.52401745 5.2401748 0.19083333
0.59016395 0.49180326 4.9180326 0.20333333
0.59999996 0.49180326 4.9180326 0.20333333
0.60983604 0.49180326 4.9180326 0.20333333
0.75071084 0.56872034 5.6872034 0.17583334
0.76208526 0.56872034 5.6872034 0.17583334
0.77345967 0.56872034 5.6872034 0.17583334
0.78483409 0.56872034 5.6872034 0.17583334
-0.84647304 0.50788385 4.9792533 0.20083332
-0.83651453 0.50788385 4.9792533 0.20083332
-0.78584069 0.5415929 5.3097343 0.18833333
-0.77522123 0.5415929 5.3097343 0.18833333
-0.76460177 0.5415929 5.3097343 0.18833333
-0.51724136 0.52758622 5.1724138 0.19333333
-0.20689656 0.52758622 5.1724138 0.19333333
0 0.52758622 5.1724138 0.19333333
0.59999996 0.50163931 4.9180326 0.20333333
0.86538458 0.58846152 5.7692304 0.17333335
0.87692302 0.58846152 5.7692304 0.17333335
0.88846147 0.58846152 5.7692304 0.17333335
-0.77522123 0.55221236 5.3097343 0.18833333
0.10084033 0.52436972 5.0420165 0.19833334
0.11092436 0.52436972 5.0420165 0.19833334
