# .PCD v0.7 - Point Cloud Data file format
VERSION 0.7
FIELDS x y z intensity
SIZE 4 4 4 4
TYPE F F F F
COUNT 1 1 1 1
WIDTH 1126
HEIGHT 1
VIEWPOINT 0 0 0 1 0 0 0
POINTS 1126
DATA ascii
-0.70705396 -0.56763488 4.9792533 0.20083332
-0.39855596 -0.49386281 4.33213 0.23083334
-0.18157895 -0.44999999 3.9473684 0.25333333
0.59234047 -0.58212769 5.1063833 0.19583333
0.60255325 -0.58212769 5.1063833 0.19583333
0.61276603 -0.58212769 5.1063833 0.19583333
0.62297875 -0.58212769 5.1063833 0.19583333
0.92020726 -0.7088083 6.2176166 0.16083333
0.68702286 -0.5221374 4.5801525 0.21833333
0.94507772 -0.7088083 6.2176166 0.16083333
0.70180506 -0.49386281 4.33213 0.23083334
-2.2079999 -1.344 12 0.083333336
-2.184 -1.344 12 0.083333336
-0.67717844 -0.55767637 4.9792533 0.20083332
-0.7165876 -0.63696676 5.6872034 0.17583334
-0.39855596 -0.48519856 4.33213 0.23083334
-0.18157895 -0.44210526 3.9473684 0.25333333
0.59234047 -0.57191491 5.1063833 0.19583333
0.62297875 -0.57191491 5.1063833 0.19583333
0.56286645 -0.43778503 3.9087949 0.25583333
0.907772 -0.69637305 6.2176166 0.16083333
0.68702286 -0.51297706 4.5801525 0.21833333
0.94507772 -0.69637305 6.2176166 0.16083333
0.70180506 -0.48519856 4.33213 0.23083334
-0.66206896 -0.56896549 5.1724138 0.19333333
-0.40722021 -0.47653431 4.33213 0.23083334
-0.39855596 -0.47653431 4.33213 0.23083334
-0.17368421 -0.43421051 3.9473684 0.25333333
-0.16578947 -0.43421051 3.9473684 0.25333333
-0.1819905 -0.62559235 5.6872034 0.17583334
0.59234047 -0.56170219 5.1063833 0.19583333
0.48469058 -0.42996743 3.9087949 0.25583333
0.50526315 -0.43421051 3.9473684 0.25333333
0.5131579 -0.43421051 3.9473684 0.25333333
0.56286645 -0.42996743 3.9087949 0.25583333
0.57631576 -0.43421051 3.9473684 0.25333333
0.70534348 -0.50381678 4.5801525 0.21833333
0.96994817 -0.68393785 6.2176166 0.16083333
0.70180506 -0.47653431 4.33213 0.23083334
-0.99183679 -0.66122454 6.1224494 0.16333333
-0.95510209 -0.66122454 6.1224494 0.16333333
-0.76208526 -0.614218 5.6872034 0.17583334
-0.73933643 -0.614218 5.6872034 0.17583334
-0.72796202 -0.614218 5.6872034 0.17583334
-0.40722021 -0.46787003 4.33213 0.23083334
-0.39855596 -0.46787003 4.33213 0.23083334
-0.19736841 -0.42631578 3.9473684 0.25333333
-0.18947369 -0.42631578 3.9473684 0.25333333
-0.1819905 -0.614218 5.6872034 0.17583334
0.6961832 -0.49465647 4.5801525 0.21833333
0.70534348 -0.49465647 4.5801525 0.21833333
-0.97959191 -0.64897966 6.1224494 0.16333333
-0.96734703 -0.64897966 6.1224494 0.16333333
-0.95510209 -0.64897966 6.1224494 0.16333333
-0.72796202 -0.60284358 5.6872034 0.17583334
-0.40722021 -0.45920578 4.33213 0.23083334
-0.39855596 -0.45920578 4.33213 0.23083334
-0.20526315 -0.41842106 3.9473684 0.25333333
-0.19736841 -0.41842106 3.9473684 0.25333333
-0.18947369 -0.41842106 3.9473684 0.25333333
-0.19655173 -0.54827589 5.1724138 0.19333333
-0.1819905 -0.60284358 5.6872034 0.17583334
0.096000001 -1.272 12 0.083333336
0.49736843 -0.41842106 3.9473684 0.25333333
0.55504888 -0.41433227 3.9087949 0.25583333
0.56286645 -0.41433227 3.9087949 0.25583333
-0.67241383 -0.53793103 5.1724138 0.19333333
-0.72796202 -0.59146917 5.6872034 0.17583334
-0.41167885 -0.4554745 4.3795624 0.22833331
-0.40291974 -0.4554745 4.3795624 0.22833331
-0.1819905 -0.59146917 5.6872034 0.17583334
0.048 -1.248 12 0.083333336
0.071999997 -1.248 12 0.083333336
0.096000001 -1.248 12 0.083333336
0.41461796 -0.41461796 3.986711 0.25083333
0.45920578 -0.45054153 4.33213 0.23083334
0.50526315 -0.41052631 3.9473684 0.25333333
0.56286645 -0.40651467 3.9087949 0.25583333
-0.41167885 -0.44671535 4.3795624 0.22833331
-0.39416063 -0.44671535 4.3795624 0.22833331
-0.17368421 -0.40263158 3.9473684 0.25333333
0.41461796 -0.40664452 3.986711 0.25083333
0.67786258 -0.46717554 4.5801525 0.21833333
-0.48403358 -0.50420165 5.0420165 0.19833334
1.152 -1.2 12 0.083333336
1.176 -1.2 12 0.083333336
0.41461796 -0.39867109 3.986711 0.25083333
0.63734442 -0.49792534 4.9792533 0.20083332
0.67786258 -0.45801526 4.5801525 0.21833333
-0.48403358 -0.49411762 5.0420165 0.19833334
-0.45378149 -0.49411762 5.0420165 0.19833334
-0.44369745 -0.49411762 5.0420165 0.19833334
0.336 -1.176 12 0.083333336
0.36000001 -1.176 12 0.083333336
0.43200001 -1.176 12 0.083333336
0.456 -1.176 12 0.083333336
1.128 -1.176 12 0.083333336
1.152 -1.176 12 0.083333336
1.176 -1.176 12 0.083333336
0.433213 -0.42454875 4.33213 0.23083334
0.45920578 -0.42454875 4.33213 0.23083334
0.7609756 -0.57365853 5.8536587 0.17083333
-0.33858922 -0.47800833 4.9792533 0.20083332
0.36000001 -1.152 12 0.083333336
0.384 -1.152 12 0.083333336
0.40799999 -1.152 12 0.083333336
0.43200001 -1.152 12 0.083333336
0.44187725 -0.41588446 4.33213 0.23083334
0.46787003 -0.41588446 4.33213 0.23083334
0.7609756 -0.56195122 5.8536587 0.17083333
0.6961832 -0.43969464 4.5801525 0.21833333
0.70534348 -0.43969464 4.5801525 0.21833333
0.71450377 -0.43969464 4.5801525 0.21833333
-0.35523465 -0.40722021 4.33213 0.23083334
-0.36846474 -0.46804982 4.9792533 0.20083332
-0.31191337 -0.40722021 4.33213 0.23083334
-0.34854773 -0.46804982 4.9792533 0.20083332
-0.50400001 -1.128 12 0.083333336
-0.21139896 -0.58445597 6.2176166 0.16083333
-0.14579438 -0.52710277 5.6074762 0.17833334
-0.13457943 -0.52710277 5.6074762 0.17833334
-0.12336448 -0.52710277 5.6074762 0.17833334
0.40664452 -0.37475082 3.986711 0.25083333
0.73756099 -0.55024391 5.8536587 0.17083333
0.74926829 -0.55024391 5.8536587 0.17083333
0.7609756 -0.55024391 5.8536587 0.17083333
0.65726143 -0.46804982 4.9792533 0.20083332
-0.51724136 -0.47586209 5.1724138 0.19333333
-0.36846474 -0.45809129 4.9792533 0.20083332
-0.31191337 -0.39855596 4.33213 0.23083334
-0.19896373 -0.57202071 6.2176166 0.16083333
-0.1865285 -0.57202071 6.2176166 0.16083333
-0.17409326 -0.57202071 6.2176166 0.16083333
-0.14579438 -0.5158878 5.6074762 0.17833334
0.45920578 -0.39855596 4.33213 0.23083334
0.46787003 -0.39855596 4.33213 0.23083334
0.48519856 -0.39855596 4.33213 0.23083334
0.61742741 -0.45809129 4.9792533 0.20083332
0.62738591 -0.45809129 4.9792533 0.20083332
0.65726143 -0.45809129 4.9792533 0.20083332
0.70534348 -0.42137402 4.5801525 0.21833333
0.71450377 -0.42137402 4.5801525 0.21833333
-0.76911193 -0.4169884 4.6332045 0.21583334
-0.75984555 -0.4169884 4.6332045 0.21583334
-0.75057912 -0.4169884 4.6332045 0.21583334
-0.7088083 -0.55958551 6.2176166 0.16083333
-0.52758622 -0.46551725 5.1724138 0.19333333
-0.51724136 -0.46551725 5.1724138 0.19333333
-0.36846474 -0.44813278 4.9792533 0.20083332
0.71450377 -0.41221371 4.5801525 0.21833333
-0.83697474 -0.44369745 5.0420165 0.19833334
-0.82689071 -0.44369745 5.0420165 0.19833334
-0.81680667 -0.44369745 5.0420165 0.19833334
-0.73367876 -0.54715025 6.2176166 0.16083333
-0.7088083 -0.54715025 6.2176166 0.16083333
-0.52758622 -0.45517242 5.1724138 0.19333333
-0.51724136 -0.45517242 5.1724138 0.19333333
-0.32057762 -0.38122743 4.33213 0.23083334
0.1819905 -0.50047392 5.6872034 0.17583334
-0.83697474 -0.43361342 5.0420165 0.19833334
-0.65971559 -0.4890995 5.6872034 0.17583334
0.17061611 -0.4890995 5.6872034 0.17583334
0.1819905 -0.4890995 5.6872034 0.17583334
0.61714286 -0.36857143 4.2857141 0.23333333
0.62571424 -0.36857143 4.2857141 0.23333333
0.63428569 -0.36857143 4.2857141 0.23333333
-0.84705877 -0.42352939 5.0420165 0.19833334
-0.73367876 -0.5222798 6.2176166 0.16083333
-0.65971559 -0.47772509 5.6872034 0.17583334
-0.42413792 -0.43448275 5.1724138 0.19333333
-0.41379312 -0.43448275 5.1724138 0.19333333
-0.31034482 -0.43448275 5.1724138 0.19333333
-0.30000001 -0.43448275 5.1724138 0.19333333
0.17061611 -0.47772509 5.6872034 0.17583334
0.61714286 -0.35999998 4.2857141 0.23333333
0.62571424 -0.35999998 4.2857141 0.23333333
0.64115524 -0.3638989 4.33213 0.23083334
-0.77837837 -0.37992278 4.6332045 0.21583334
-0.48620689 -0.42413792 5.1724138 0.19333333
-0.34137931 -0.42413792 5.1724138 0.19333333
-0.33103448 -0.42413792 5.1724138 0.19333333
-0.31034482 -0.42413792 5.1724138 0.19333333
0.62571424 -0.35142857 4.2857141 0.23333333
-0.86722684 -0.40336132 5.0420165 0.19833334
-0.85714281 -0.40336132 5.0420165 0.19833334
-0.84705877 -0.40336132 5.0420165 0.19833334
-0.47586209 -0.41379312 5.1724138 0.19333333
-0.43448275 -0.40344828 5.1724138 0.19333333
-0.42413792 -0.40344828 5.1724138 0.19333333
-0.10285714 -0.33428571 4.2857141 0.23333333
-0.46551725 -0.39310345 5.1724138 0.19333333
-0.43448275 -0.39310345 5.1724138 0.19333333
-0.42413792 -0.39310345 5.1724138 0.19333333
-0.41379312 -0.39310345 5.1724138 0.19333333
0.79668051 -0.37842324 4.9792533 0.20083332
0.80663902 -0.37842324 4.9792533 0.20083332
-0.45517242 -0.38275862 5.1724138 0.19333333
-0.10285714 -0.31714284 4.2857141 0.23333333
-0.094285712 -0.31714284 4.2857141 0.23333333
0.80663902 -0.36846474 4.9792533 0.20083332
-1.656 -0.86400002 12 0.083333336
-1.632 -0.86400002 12 0.083333336
-0.6790244 -0.42146343 5.8536587 0.17083333
-0.65560979 -0.42146343 5.8536587 0.17083333
-0.11142857 -0.30857143 4.2857141 0.23333333
0.168 -0.86400002 12 0.083333336
1.536 -0.86400002 12 0.083333336
1.5599999 -0.86400002 12 0.083333336
0.81659752 -0.35850623 4.9792533 0.20083332
0.82655603 -0.35850623 4.9792533 0.20083332
-0.6790244 -0.40975609 5.8536587 0.17083333
-0.65560979 -0.40975609 5.8536587 0.17083333
-0.64390248 -0.40975609 5.8536587 0.17083333
-0.44482759 -0.36206898 5.1724138 0.19333333
-0.11142857 -0.29999998 4.2857141 0.23333333
-0.085714281 -0.29999998 4.2857141 0.23333333
0.82655603 -0.34854773 4.9792533 0.20083332
-0.6790244 -0.39804879 5.8536587 0.17083333
-0.64390248 -0.39804879 5.8536587 0.17083333
-0.63219512 -0.39804879 5.8536587 0.17083333
-0.10285714 -0.29142857 4.2857141 0.23333333
-0.094285712 -0.29142857 4.2857141 0.23333333
-0.085714281 -0.29142857 4.2857141 0.23333333
0.83651453 -0.33858922 4.9792533 0.20083332
0.84647304 -0.33858922 4.9792533 0.20083332
0.015946845 -0.26312292 3.986711 0.25083333
1.392 -0.792 12 0.083333336
1.416 -0.792 12 0.083333336
1.4400001 -0.792 12 0.083333336
0.84647304 -0.32863072 4.9792533 0.20083332
-0.69009584 -0.24536742 3.8338659 0.26083332
-0.68242812 -0.24536742 3.8338659 0.26083332
-0.46635067 -0.36398101 5.6872034 0.17583334
-0.43523315 -0.39792746 6.2176166 0.16083333
0 -0.25514951 3.986711 0.25083333
0.031893689 -0.25514951 3.986711 0.25083333
0.039867111 -0.25514951 3.986711 0.25083333
1.416 -0.76800001 12 0.083333336
0.80816334 -0.39183676 6.1224494 0.16333333
0.82040823 -0.39183676 6.1224494 0.16333333
0.83265311 -0.39183676 6.1224494 0.16333333
0.84489805 -0.39183676 6.1224494 0.16333333
0.796875 -0.30000001 4.6875 0.21333334
0.80624998 -0.30000001 4.6875 0.21333334
-0.47772509 -0.35260662 5.6872034 0.17583334
-0.46635067 -0.35260662 5.6872034 0.17583334
-0.45497626 -0.35260662 5.6872034 0.17583334
0.84489805 -0.37959185 6.1224494 0.16333333
0.84647304 -0.3087137 4.9792533 0.20083332
0.80624998 -0.29062501 4.6875 0.21333334
0.86639005 -0.3087137 4.9792533 0.20083332
-0.68242812 -0.23003195 3.8338659 0.26083332
-0.6747604 -0.23003195 3.8338659 0.26083332
-0.66709268 -0.23003195 3.8338659 0.26083332
-0.68246442 -0.34123221 5.6872034 0.17583334
-0.41036269 -0.37305701 6.2176166 0.16083333
0.015946845 -0.23920266 3.986711 0.25083333
0.031893689 -0.23920266 3.986711 0.25083333
0.039867111 -0.23920266 3.986711 0.25083333
0.80624998 -0.28125 4.6875 0.21333334
0.82499999 -0.28125 4.6875 0.21333334
-0.91914898 -0.29617023 5.1063833 0.19583333
-0.89872348 -0.29617023 5.1063833 0.19583333
-0.50047392 -0.3298578 5.6872034 0.17583334
-0.42279792 -0.36062175 6.2176166 0.16083333
-0.41036269 -0.36062175 6.2176166 0.16083333
-0.39792746 -0.36062175 6.2176166 0.16083333
0.031893689 -0.23122925 3.986711 0.25083333
0.039867111 -0.23122925 3.986711 0.25083333
0.80816334 -0.35510206 6.1224494 0.16333333
0.86639005 -0.28879669 4.9792533 0.20083332
0.82499999 -0.27187499 4.6875 0.21333334
-0.69383883 -0.31848338 5.6872034 0.17583334
-0.68246442 -0.31848338 5.6872034 0.17583334
-0.50047392 -0.31848338 5.6872034 0.17583334
-0.42279792 -0.34818652 6.2176166 0.16083333
0.85714293 -0.34285715 6.1224494 0.16333333
0.86938781 -0.34285715 6.1224494 0.16333333
0.87634856 -0.27883819 4.9792533 0.20083332
0.83437502 -0.26249999 4.6875 0.21333334
0.89626557 -0.27883819 4.9792533 0.20083332
-0.81724137 -0.27931035 5.1724138 0.19333333
-0.80689657 -0.27931035 5.1724138 0.19333333
-0.69383883 -0.307109 5.6872034 0.17583334
-0.68246442 -0.307109 5.6872034 0.17583334
0.88630706 -0.26887968 4.9792533 0.20083332
0.89626557 -0.26887968 4.9792533 0.20083332
-0.89872348 -0.26553193 5.1063833 0.19583333
0.48461536 -0.29999998 5.7692304 0.17333335
0.51923072 -0.29999998 5.7692304 0.17333335
0.90622407 -0.25892118 4.9792533 0.20083332
-0.9089362 -0.25531918 5.1063833 0.19583333
-0.89872348 -0.25531918 5.1063833 0.19583333
-0.82758623 -0.25862068 5.1724138 0.19333333
0.096000001 -0.60000002 12 0.083333336
0.12 -0.60000002 12 0.083333336
0.48461536 -0.28846151 5.7692304 0.17333335
0.4961538 -0.28846151 5.7692304 0.17333335
0.90622407 -0.24896267 4.9792533 0.20083332
0.91618258 -0.24896267 4.9792533 0.20083332
-0.82758623 -0.24827586 5.1724138 0.19333333
-0.81724137 -0.24827586 5.1724138 0.19333333
-0.80689657 -0.24827586 5.1724138 0.19333333
-0.7965517 -0.24827586 5.1724138 0.19333333
-0.43853822 -0.19136213 3.986711 0.25083333
-0.43056479 -0.19136213 3.986711 0.25083333
-0.42259136 -0.19136213 3.986711 0.25083333
0.096000001 -0.57599998 12 0.083333336
0.12 -0.57599998 12 0.083333336
0.48461536 -0.27692306 5.7692304 0.17333335
0.4961538 -0.27692306 5.7692304 0.17333335
0.51985562 -0.20794223 4.33213 0.23083334
0.74198472 -0.21984732 4.5801525 0.21833333
0.75114501 -0.21984732 4.5801525 0.21833333
0.76030535 -0.21984732 4.5801525 0.21833333
0.90622407 -0.23900416 4.9792533 0.20083332
0.91618258 -0.23900416 4.9792533 0.20083332
-0.8885107 -0.23489363 5.1063833 0.19583333
-0.82758623 -0.23793104 5.1724138 0.19333333
-0.43056479 -0.18338871 3.986711 0.25083333
-0.42259136 -0.18338871 3.986711 0.25083333
-0.40664452 -0.18338871 3.986711 0.25083333
-0.21908714 -0.22904564 4.9792533 0.20083332
-0.20912863 -0.22904564 4.9792533 0.20083332
-0.19917013 -0.22904564 4.9792533 0.20083332
0.73282439 -0.21068701 4.5801525 0.21833333
0.74198472 -0.21068701 4.5801525 0.21833333
0.75114501 -0.21068701 4.5801525 0.21833333
0.76030535 -0.21068701 4.5801525 0.21833333
-0.89872348 -0.22468087 5.1063833 0.19583333
-0.8885107 -0.22468087 5.1063833 0.19583333
-0.20912863 -0.21908714 4.9792533 0.20083332
0.51985562 -0.19061372 4.33213 0.23083334
0.52851987 -0.19061372 4.33213 0.23083334
0.75114501 -0.20152672 4.5801525 0.21833333
0.76030535 -0.20152672 4.5801525 0.21833333
-0.74571425 -0.17999999 4.2857141 0.23333333
0.52851987 -0.18194945 4.33213 0.23083334
-0.57721514 -0.15189873 3.7974682 0.26333335
-0.56426328 -0.15047021 3.7617552 0.26583335
0.03412322 -0.22748813 5.6872034 0.17583334
0.045497626 -0.22748813 5.6872034 0.17583334
0.40336132 -0.20168066 5.0420165 0.19833334
0.41344535 -0.20168066 5.0420165 0.19833334
0.53718412 -0.1732852 4.33213 0.23083334
0.54584837 -0.1732852 4.33213 0.23083334
0.55504888 -0.15635179 3.9087949 0.25583333
-0.57178682 -0.14294671 3.7617552 0.26583335
0.03412322 -0.21611373 5.6872034 0.17583334
0.045497626 -0.21611373 5.6872034 0.17583334
0.39327729 -0.19159663 5.0420165 0.19833334
0.40336132 -0.19159663 5.0420165 0.19833334
0.41344535 -0.19159663 5.0420165 0.19833334
-0.73714286 -0.15428571 4.2857141 0.23333333
-0.72857141 -0.15428571 4.2857141 0.23333333
-0.56426328 -0.13542318 3.7617552 0.26583335
0.022748813 -0.20473932 5.6872034 0.17583334
0.03412322 -0.20473932 5.6872034 0.17583334
0.39327729 -0.18151259 5.0420165 0.19833334
0.53718412 -0.15595669 4.33213 0.23083334
-0.74571425 -0.14571428 4.2857141 0.23333333
-0.73714286 -0.14571428 4.2857141 0.23333333
-0.72857141 -0.14571428 4.2857141 0.23333333
-1.536 -0.40799999 12 0.083333336
-0.18762216 -0.13289903 3.9087949 0.25583333
0.010212767 -0.17361704 5.1063833 0.19583333
0.020425534 -0.17361704 5.1063833 0.19583333
0.0306383 -0.17361704 5.1063833 0.19583333
0.38319325 -0.17142856 5.0420165 0.19833334
0.41344535 -0.17142856 5.0420165 0.19833334
0.63673472 -0.11895044 3.4985423 0.28583333
0.64373177 -0.11895044 3.4985423 0.28583333
-0.74571425 -0.13714285 4.2857141 0.23333333
-0.73714286 -0.13714285 4.2857141 0.23333333
-1.5599999 -0.384 12 0.083333336
-1.536 -0.384 12 0.083333336
-1.512 -0.384 12 0.083333336
-1.224 -0.384 12 0.083333336
-1.2 -0.384 12 0.083333336
-0.21889251 -0.12508143 3.9087949 0.25583333
0.55199999 -0.384 12 0.083333336
0.37310922 -0.16134453 5.0420165 0.19833334
0.38319325 -0.16134453 5.0420165 0.19833334
0.63673472 -0.11195336 3.4985423 0.28583333
0.64373177 -0.11195336 3.4985423 0.28583333
-0.74571425 -0.12857142 4.2857141 0.23333333
-0.19543974 -0.11726385 3.9087949 0.25583333
-0.18762216 -0.11726385 3.9087949 0.25583333
0.36302519 -0.1512605 5.0420165 0.19833334
0.37310922 -0.1512605 5.0420165 0.19833334
0.42352939 -0.1512605 5.0420165 0.19833334
0.63673472 -0.10495627 3.4985423 0.28583333
0.64373177 -0.10495627 3.4985423 0.28583333
-0.91034484 -0.14482759 5.1724138 0.19333333
-0.24732824 -0.12824427 4.5801525 0.21833333
-0.23816793 -0.12824427 4.5801525 0.21833333
-0.21984732 -0.12824427 4.5801525 0.21833333
-0.010212767 -0.14297873 5.1063833 0.19583333
0.55199999 -0.336 12 0.083333336
0.57599998 -0.336 12 0.083333336
0.63673472 -0.097959183 3.4985423 0.28583333
0.64373177 -0.097959183 3.4985423 0.28583333
-0.95172417 -0.13448276 5.1724138 0.19333333
-0.94137931 -0.13448276 5.1724138 0.19333333
-0.71701247 -0.12946059 4.9792533 0.20083332
-0.24732824 -0.11908396 4.5801525 0.21833333
-0.23816793 -0.11908396 4.5801525 0.21833333
-0.010212767 -0.13276596 5.1063833 0.19583333
0.55199999 -0.31200001 12 0.083333336
0.57599998 -0.31200001 12 0.083333336
0.63673472 -0.090962097 3.4985423 0.28583333
0.64373177 -0.090962097 3.4985423 0.28583333
-0.95172417 -0.12413793 5.1724138 0.19333333
-0.94137931 -0.12413793 5.1724138 0.19333333
-0.66870224 -0.10992366 4.5801525 0.21833333
-0.65954196 -0.10992366 4.5801525 0.21833333
-0.64122134 -0.10992366 4.5801525 0.21833333
-0.43795624 -0.1051095 4.3795624 0.22833331
-0.020425534 -0.1225532 5.1063833 0.19583333
0.010212767 -0.1225532 5.1063833 0.19583333
-0.73692948 -0.10954357 4.9792533 0.20083332
-0.65038168 -0.10076336 4.5801525 0.21833333
-0.46423361 -0.096350372 4.3795624 0.22833331
-0.39473683 -0.086842105 3.9473684 0.25333333
-0.0306383 -0.11234044 5.1063833 0.19583333
0.010212767 -0.11234044 5.1063833 0.19583333
-0.63815027 -0.06936416 3.4682081 0.28833333
-0.63121384 -0.06936416 3.4682081 0.28833333
-0.67786258 -0.091603048 4.5801525 0.21833333
-0.71701247 -0.099585064 4.9792533 0.20083332
-0.39473683 -0.078947365 3.9473684 0.25333333
-0.020425534 -0.10212766 5.1063833 0.19583333
0.010212767 -0.10212766 5.1063833 0.19583333
0.69599998 -0.23999999 12 0.083333336
0.45801526 -0.091603048 4.5801525 0.21833333
0.46717554 -0.091603048 4.5801525 0.21833333
0.47633585 -0.091603048 4.5801525 0.21833333
1.632 -0.23999999 12 0.083333336
1.656 -0.23999999 12 0.083333336
-0.63815027 -0.062427744 3.4682081 0.28833333
-0.63121384 -0.062427744 3.4682081 0.28833333
-0.67786258 -0.082442746 4.5801525 0.21833333
-0.72697097 -0.089626558 4.9792533 0.20083332
-0.41052631 -0.071052633 3.9473684 0.25333333
-0.010212767 -0.0919149 5.1063833 0.19583333
0 -0.0919149 5.1063833 0.19583333
0.010212767 -0.0919149 5.1063833 0.19583333
0.45801526 -0.082442746 4.5801525 0.21833333
0.46717554 -0.082442746 4.5801525 0.21833333
1.632 -0.21600001 12 0.083333336
1.656 -0.21600001 12 0.083333336
1.6799999 -0.21600001 12 0.083333336
-0.63815027 -0.055491328 3.4682081 0.28833333
-0.72697097 -0.079668052 4.9792533 0.20083332
-0.40664452 -0.063787378 3.986711 0.25083333
0.010212767 -0.081702136 5.1063833 0.19583333
0.42413792 -0.08275862 5.1724138 0.19333333
0.43448275 -0.08275862 5.1724138 0.19333333
1.632 -0.192 12 0.083333336
1.656 -0.192 12 0.083333336
1.6799999 -0.192 12 0.083333336
-0.44671535 -0.061313875 4.3795624 0.22833331
-0.43795624 -0.061313875 4.3795624 0.22833331
0.18194945 -0.06064982 4.33213 0.23083334
0.19061372 -0.06064982 4.33213 0.23083334
0.41842106 -0.055263158 3.9473684 0.25333333
0.42214984 -0.054723129 3.9087949 0.25583333
0.57759339 -0.069709547 4.9792533 0.20083332
-0.70534348 -0.05496183 4.5801525 0.21833333
-0.6961832 -0.05496183 4.5801525 0.21833333
-0.43795624 -0.052554749 4.3795624 0.22833331
-0.4291971 -0.052554749 4.3795624 0.22833331
-0.30252099 -0.060504198 5.0420165 0.19833334
-0.29243696 -0.060504198 5.0420165 0.19833334
0.43448275 -0.062068965 5.1724138 0.19333333
-0.79659581 -0.051063832 5.1063833 0.19583333
-0.78638303 -0.051063832 5.1063833 0.19583333
-0.6961832 -0.045801524 4.5801525 0.21833333
-0.45801526 -0.045801524 4.5801525 0.21833333
-0.43969464 -0.045801524 4.5801525 0.21833333
-0.43053433 -0.045801524 4.5801525 0.21833333
-0.40336132 -0.050420165 5.0420165 0.19833334
-0.39327729 -0.050420165 5.0420165 0.19833334
-0.38319325 -0.050420165 5.0420165 0.19833334
-0.37310922 -0.050420165 5.0420165 0.19833334
0.19061372 -0.0433213 4.33213 0.23083334
0.19927798 -0.0433213 4.33213 0.23083334
0.42413792 -0.05172414 5.1724138 0.19333333
0.44482759 -0.05172414 5.1724138 0.19333333
0.41433227 -0.039087947 3.9087949 0.25583333
0.42214984 -0.039087947 3.9087949 0.25583333
-1.0615383 -0.046153843 5.7692304 0.17333335
-1.05 -0.046153843 5.7692304 0.17333335
-0.7236641 -0.036641221 4.5801525 0.21833333
-0.71450377 -0.036641221 4.5801525 0.21833333
-0.78638303 -0.040851068 5.1063833 0.19583333
-0.43795624 -0.035036501 4.3795624 0.22833331
-0.43448275 -0.04137931 5.1724138 0.19333333
-0.41344535 -0.040336132 5.0420165 0.19833334
-0.38319325 -0.040336132 5.0420165 0.19833334
0.19061372 -0.034657039 4.33213 0.23083334
0.43448275 -0.04137931 5.1724138 0.19333333
0.44482759 -0.04137931 5.1724138 0.19333333
0.45517242 -0.04137931 5.1724138 0.19333333
0.42996743 -0.031270359 3.9087949 0.25583333
0.43778503 -0.031270359 3.9087949 0.25583333
1.776 -0.096000001 12 0.083333336
-1.0615383 -0.034615383 5.7692304 0.17333335
-1.05 -0.034615383 5.7692304 0.17333335
-0.43795624 -0.026277374 4.3795624 0.22833331
-0.4291971 -0.026277374 4.3795624 0.22833331
-0.41344535 -0.030252099 5.0420165 0.19833334
-0.41379312 -0.031034483 5.1724138 0.19333333
-0.38319325 -0.030252099 5.0420165 0.19833334
-0.29243696 -0.030252099 5.0420165 0.19833334
-0.28235292 -0.030252099 5.0420165 0.19833334
0.31401867 -0.033644859 5.6074762 0.17833334
0.32523361 -0.033644859 5.6074762 0.17833334
0.33644858 -0.033644859 5.6074762 0.17833334
0.34766352 -0.033644859 5.6074762 0.17833334
0.44560263 -0.02345277 3.9087949 0.25583333
0.45342019 -0.02345277 3.9087949 0.25583333
0.5057143 -0.025714286 4.2857141 0.23333333
0.51428568 -0.025714286 4.2857141 0.23333333
1.776 -0.071999997 12 0.083333336
1.035071 -0.03412322 5.6872034 0.17583334
-1.0615383 -0.023076922 5.7692304 0.17333335
-1.05 -0.023076922 5.7692304 0.17333335
-0.73282439 -0.018320611 4.5801525 0.21833333
-0.77617025 -0.020425534 5.1063833 0.19583333
-0.45801526 -0.018320611 4.5801525 0.21833333
-0.44885495 -0.018320611 4.5801525 0.21833333
-0.43969464 -0.018320611 4.5801525 0.21833333
-0.38319325 -0.020168066 5.0420165 0.19833334
-0.30252099 -0.020168066 5.0420165 0.19833334
-0.29243696 -0.020168066 5.0420165 0.19833334
-0.28235292 -0.020168066 5.0420165 0.19833334
0.25384614 -0.023076922 5.7692304 0.17333335
0.34766352 -0.022429906 5.6074762 0.17833334
1.776 -0.048 12 0.083333336
1.9680001 -0.048 12 0.083333336
1.992 -0.048 12 0.083333336
1.035071 -0.022748813 5.6872034 0.17583334
-1.0615383 -0.011538461 5.7692304 0.17333335
-1.05 -0.011538461 5.7692304 0.17333335
-0.4291971 -0.0087591251 4.3795624 0.22833331
-0.42043799 -0.0087591251 4.3795624 0.22833331
-0.41379312 -0.010344828 5.1724138 0.19333333
-0.30252099 -0.010084033 5.0420165 0.19833334
-0.29243696 -0.010084033 5.0420165 0.19833334
-0.23626943 -0.012435233 6.2176166 0.16083333
-0.2238342 -0.012435233 6.2176166 0.16083333
-0.21139896 -0.012435233 6.2176166 0.16083333
-0.087707646 -0.0079734223 3.986711 0.25083333
0.32523361 -0.011214953 5.6074762 0.17833334
0.51428568 -0.0085714282 4.2857141 0.23333333
0.52285713 -0.0085714282 4.2857141 0.23333333
-1.0615383 0 5.7692304 0.17333335
-1.05 0 5.7692304 0.17333335
-0.4291971 0 4.3795624 0.22833331
-0.42043799 0 4.3795624 0.22833331
-0.41379312 0 5.1724138 0.19333333
-0.40344828 0 5.1724138 0.19333333
-0.27799228 0 4.6332045 0.21583334
-0.26872587 0 4.6332045 0.21583334
-0.23626943 0 6.2176166 0.16083333
-0.095681064 0 3.986711 0.25083333
-0.087707646 0 3.986711 0.25083333
0.40799999 0 12 0.083333336
0.24230768 0 5.7692304 0.17333335
0.25210083 0 5.0420165 0.19833334
0.51428568 0 4.2857141 0.23333333
0.53142858 0 4.2857141 0.23333333
-0.43795624 0.0087591251 4.3795624 0.22833331
-0.27799228 0.0092664091 4.6332045 0.21583334
-0.26872587 0.0092664091 4.6332045 0.21583334
-0.095681064 0.0079734223 3.986711 0.25083333
-0.071760796 0.0079734223 3.986711 0.25083333
0.23076922 0.011538461 5.7692304 0.17333335
0.24230768 0.011538461 5.7692304 0.17333335
0.26218486 0.010084033 5.0420165 0.19833334
0.27226889 0.010084033 5.0420165 0.19833334
0.52285713 0.0085714282 4.2857141 0.23333333
0.53142858 0.0085714282 4.2857141 0.23333333
1.0236967 0.011374407 5.6872034 0.17583334
-0.43795624 0.01751825 4.3795624 0.22833331
-0.27799228 0.018532818 4.6332045 0.21583334
0.28285712 0.017142856 4.2857141 0.23333333
0.29142857 0.017142856 4.2857141 0.23333333
-0.86538458 0.034615383 5.7692304 0.17333335
-0.85384607 0.034615383 5.7692304 0.17333335
-0.2368421 0.023684211 3.9473684 0.25333333
0.26218486 0.030252099 5.0420165 0.19833334
0.27226889 0.030252099 5.0420165 0.19833334
0.29142857 0.025714286 4.2857141 0.23333333
0.30857143 0.025714286 4.2857141 0.23333333
0.48469058 0.02345277 3.9087949 0.25583333
0.85308051 0.03412322 5.6872034 0.17583334
-0.86538458 0.046153843 5.7692304 0.17333335
-0.85384607 0.046153843 5.7692304 0.17333335
-0.2368421 0.031578947 3.9473684 0.25333333
-0.22894737 0.031578947 3.9473684 0.25333333
-0.18056425 0.030094042 3.7617552 0.26583335
-0.17304075 0.030094042 3.7617552 0.26583335
-0.16551723 0.030094042 3.7617552 0.26583335
0.29142857 0.034285713 4.2857141 0.23333333
0.30857143 0.034285713 4.2857141 0.23333333
0.8417061 0.045497626 5.6872034 0.17583334
0.85308051 0.045497626 5.6872034 0.17583334
0.86445493 0.045497626 5.6872034 0.17583334
-0.86538458 0.057692304 5.7692304 0.17333335
-0.84230763 0.057692304 5.7692304 0.17333335
-0.2368421 0.039473683 3.9473684 0.25333333
-0.22894737 0.039473683 3.9473684 0.25333333
-0.17806453 0.038709678 3.8709679 0.25833333
0.49250814 0.039087947 3.9087949 0.25583333
0.50032574 0.039087947 3.9087949 0.25583333
0.87582934 0.056872033 5.6872034 0.17583334
-0.84230763 0.069230765 5.7692304 0.17333335
-0.51784235 0.059751041 4.9792533 0.20083332
-0.50788385 0.059751041 4.9792533 0.20083332
-0.24473684 0.047368422 3.9473684 0.25333333
-0.2368421 0.047368422 3.9473684 0.25333333
-0.17806453 0.046451613 3.8709679 0.25833333
-0.078947365 0.047368422 3.9473684 0.25333333
-0.023920266 0.047840532 3.986711 0.25083333
0.11142857 0.051428571 4.2857141 0.23333333
0.49250814 0.04690554 3.9087949 0.25583333
0.50032574 0.04690554 3.9087949 0.25583333
0.50814331 0.04690554 3.9087949 0.25583333
-0.87692302 0.080769226 5.7692304 0.17333335
-0.51784235 0.069709547 4.9792533 0.20083332
-0.36641219 0.064122133 4.5801525 0.21833333
-0.35725188 0.064122133 4.5801525 0.21833333
-0.17806453 0.054193549 3.8709679 0.25833333
-0.078947365 0.055263158 3.9473684 0.25333333
-0.055813953 0.055813953 3.986711 0.25083333
-0.031893689 0.055813953 3.986711 0.25083333
0.095306858 0.06064982 4.33213 0.23083334
0.10397112 0.06064982 4.33213 0.23083334
0.11263538 0.06064982 4.33213 0.23083334
0.13941909 0.069709547 4.9792533 0.20083332
0.23193276 0.070588231 5.0420165 0.19833334
0.24201679 0.070588231 5.0420165 0.19833334
0.25210083 0.070588231 5.0420165 0.19833334
0.26218486 0.070588231 5.0420165 0.19833334
0.38319325 0.070588231 5.0420165 0.19833334
0.40336132 0.070588231 5.0420165 0.19833334
-0.98957342 0.090995252 5.6872034 0.17583334
-0.52780086 0.079668052 4.9792533 0.20083332
-0.50788385 0.079668052 4.9792533 0.20083332
-0.17304075 0.060188085 3.7617552 0.26583335
0.086642601 0.069314077 4.33213 0.23083334
0.095306858 0.069314077 4.33213 0.23083334
0.13941909 0.079668052 4.9792533 0.20083332
0.38319325 0.080672264 5.0420165 0.19833334
0.40336132 0.080672264 5.0420165 0.19833334
0.69709545 0.079668052 4.9792533 0.20083332
0.70705396 0.079668052 4.9792533 0.20083332
0.85308051 0.090995252 5.6872034 0.17583334
-0.98957342 0.10236966 5.6872034 0.17583334
-0.96682459 0.10236966 5.6872034 0.17583334
-0.53775936 0.089626558 4.9792533 0.20083332
-0.50788385 0.089626558 4.9792533 0.20083332
-0.39389312 0.082442746 4.5801525 0.21833333
-0.38473281 0.082442746 4.5801525 0.21833333
-0.23225807 0.06967742 3.8709679 0.25833333
-0.071052633 0.071052633 3.9473684 0.25333333
0.086642601 0.077978343 4.33213 0.23083334
0.1493776 0.089626558 4.9792533 0.20083332
0.1593361 0.089626558 4.9792533 0.20083332
0.24827586 0.093103446 5.1724138 0.19333333
0.25862068 0.093103446 5.1724138 0.19333333
0.76800001 0.21600001 12 0.083333336
0.792 0.21600001 12 0.083333336
0.70705396 0.089626558 4.9792533 0.20083332
0.74688798 0.089626558 4.9792533 0.20083332
-0.94407576 0.11374407 5.6872034 0.17583334
-0.93270135 0.11374407 5.6872034 0.17583334
-0.55767637 0.099585064 4.9792533 0.20083332
-0.53775936 0.099585064 4.9792533 0.20083332
-0.50788385 0.099585064 4.9792533 0.20083332
-0.37664238 0.087591246 4.3795624 0.22833331
-0.38473281 0.091603048 4.5801525 0.21833333
-0.17806453 0.077419356 3.8709679 0.25833333
-0.17032258 0.077419356 3.8709679 0.25833333
-0.047840532 0.079734221 3.986711 0.25083333
0.069314077 0.086642601 4.33213 0.23083334
0.11950208 0.099585064 4.9792533 0.20083332
0.22184873 0.10084033 5.0420165 0.19833334
0.23793104 0.10344828 5.1724138 0.19333333
0.25862068 0.10344828 5.1724138 0.19333333
0.26896551 0.10344828 5.1724138 0.19333333
0.76800001 0.23999999 12 0.083333336
0.45789474 0.078947365 3.9473684 0.25333333
0.70705396 0.099585064 4.9792533 0.20083332
0.74688798 0.099585064 4.9792533 0.20083332
-1.6799999 0.264 12 0.083333336
-0.54771787 0.10954357 4.9792533 0.20083332
-0.50788385 0.10954357 4.9792533 0.20083332
-0.37664238 0.096350372 4.3795624 0.22833331
-0.36788324 0.096350372 4.3795624 0.22833331
-0.28421053 0.086842105 3.9473684 0.25333333
-0.23225807 0.085161291 3.8709679 0.25833333
1.08 0.264 12 0.083333336
1.104 0.264 12 0.083333336
1.128 0.264 12 0.083333336
0.44210526 0.086842105 3.9473684 0.25333333
0.44999999 0.086842105 3.9473684 0.25333333
0.45789474 0.086842105 3.9473684 0.25333333
-1.0009478 0.13649288 5.6872034 0.17583334
-0.98957342 0.13649288 5.6872034 0.17583334
-0.97819901 0.13649288 5.6872034 0.17583334
-1.704 0.28799999 12 0.083333336
-1.656 0.28799999 12 0.083333336
-0.37664238 0.1051095 4.3795624 0.22833331
-0.36788324 0.1051095 4.3795624 0.22833331
-0.23225807 0.092903227 3.8709679 0.25833333
1.08 0.28799999 12 0.083333336
1.104 0.28799999 12 0.083333336
1.128 0.28799999 12 0.083333336
1.152 0.28799999 12 0.083333336
0.43421051 0.094736844 3.9473684 0.25333333
2.0880001 0.28799999 12 0.083333336
2.112 0.28799999 12 0.083333336
-1.0009478 0.14786729 5.6872034 0.17583334
-0.96682459 0.14786729 5.6872034 0.17583334
-0.68447655 0.11263538 4.33213 0.23083334
-0.39473683 0.10263158 3.9473684 0.25333333
-0.37664238 0.11386862 4.3795624 0.22833331
-0.36788324 0.11386862 4.3795624 0.22833331
-0.35912412 0.11386862 4.3795624 0.22833331
-0.28143322 0.10162867 3.9087949 0.25583333
-0.23225807 0.10064516 3.8709679 0.25833333
0.43421051 0.10263158 3.9473684 0.25333333
2.112 0.31200001 12 0.083333336
-0.98957342 0.15924169 5.6872034 0.17583334
-0.28925082 0.10944626 3.9087949 0.25583333
-0.28143322 0.10944626 3.9087949 0.25583333
-0.27361563 0.10944626 3.9087949 0.25583333
-0.23225807 0.1083871 3.8709679 0.25833333
0.88720375 0.15924169 5.6872034 0.17583334
2.112 0.336 12 0.083333336
-0.97819901 0.17061611 5.6872034 0.17583334
-0.96682459 0.17061611 5.6872034 0.17583334
-0.68447655 0.1299639 4.33213 0.23083334
-0.67581224 0.1299639 4.33213 0.23083334
-0.66714799 0.1299639 4.33213 0.23083334
-0.39087948 0.11726385 3.9087949 0.25583333
-0.38306189 0.11726385 3.9087949 0.25583333
-0.29706842 0.11726385 3.9087949 0.25583333
-0.28925082 0.11726385 3.9087949 0.25583333
-0.28143322 0.11726385 3.9087949 0.25583333
-0.27361563 0.11726385 3.9087949 0.25583333
-0.11142857 0.12857142 4.2857141 0.23333333
0.47586209 0.15517241 5.1724138 0.19333333
0.49655172 0.15517241 5.1724138 0.19333333
0.61742741 0.1493776 4.9792533 0.20083332
0.62738591 0.1493776 4.9792533 0.20083332
0.88720375 0.17061611 5.6872034 0.17583334
0.90995252 0.17061611 5.6872034 0.17583334
-0.96448588 0.17943925 5.6074762 0.17833334
-0.95327097 0.17943925 5.6074762 0.17833334
-0.93084103 0.17943925 5.6074762 0.17833334
-0.68447655 0.13862815 4.33213 0.23083334
-0.67581224 0.13862815 4.33213 0.23083334
-0.3868421 0.12631579 3.9473684 0.25333333
-0.37894738 0.12631579 3.9473684 0.25333333
-0.11142857 0.13714285 4.2857141 0.23333333
0.40285712 0.13714285 4.2857141 0.23333333
0.61742741 0.1593361 4.9792533 0.20083332
0.62738591 0.1593361 4.9792533 0.20083332
0.65726143 0.1593361 4.9792533 0.20083332
-0.95327097 0.19065419 5.6074762 0.17833334
-0.93084103 0.19065419 5.6074762 0.17833334
-0.41999999 0.14571428 4.2857141 0.23333333
-0.41142857 0.14571428 4.2857141 0.23333333
-0.1512605 0.17142856 5.0420165 0.19833334
-0.12 0.14571428 4.2857141 0.23333333
-0.11142857 0.14571428 4.2857141 0.23333333
0.34615383 0.19615383 5.7692304 0.17333335
0.39428571 0.14571428 4.2857141 0.23333333
0.40285712 0.14571428 4.2857141 0.23333333
0.89857817 0.19336492 5.6872034 0.17583334
0.90995252 0.19336492 5.6872034 0.17583334
-0.4285714 0.15428571 4.2857141 0.23333333
-0.50400001 0.43200001 12 0.083333336
-0.029875521 0.17925312 4.9792533 0.20083332
0.34615383 0.2076923 5.7692304 0.17333335
0.35769227 0.2076923 5.7692304 0.17333335
0.39428571 0.15428571 4.2857141 0.23333333
0.88720375 0.20473932 5.6872034 0.17583334
0.89857817 0.20473932 5.6872034 0.17583334
0.90995252 0.20473932 5.6872034 0.17583334
0.82442743 0.16488549 4.5801525 0.21833333
0.83358777 0.16488549 4.5801525 0.21833333
-0.95327097 0.2130841 5.6074762 0.17833334
-0.43714285 0.16285715 4.2857141 0.23333333
-0.4285714 0.16285715 4.2857141 0.23333333
-0.019917013 0.18921162 4.9792533 0.20083332
-0.0099585066 0.18921162 4.9792533 0.20083332
0 0.18921162 4.9792533 0.20083332
0.77111912 0.16462094 4.33213 0.23083334
0.83358777 0.1740458 4.5801525 0.21833333
-0.95327097 0.22429904 5.6074762 0.17833334
-0.0099585066 0.19917013 4.9792533 0.20083332
0 0.19917013 4.9792533 0.20083332
0.34615383 0.23076922 5.7692304 0.17333335
0.73646212 0.1732852 4.33213 0.23083334
0.77111912 0.1732852 4.33213 0.23083334
0.83358777 0.1832061 4.5801525 0.21833333
-0.71999997 0.17999999 4.2857141 0.23333333
-0.70285714 0.17999999 4.2857141 0.23333333
-0.13109243 0.21176469 5.0420165 0.19833334
0.11950208 0.20912863 4.9792533 0.20083332
0.13941909 0.20912863 4.9792533 0.20083332
0.1493776 0.20912863 4.9792533 0.20083332
0.33359072 0.19459459 4.6332045 0.21583334
0.34285712 0.19459459 4.6332045 0.21583334
0.4890995 0.23886254 5.6872034 0.17583334
0.50047392 0.23886254 5.6872034 0.17583334
0.75379062 0.18194945 4.33213 0.23083334
0.83358777 0.19236641 4.5801525 0.21833333
0.84274805 0.19236641 4.5801525 0.21833333
-0.71999997 0.18857142 4.2857141 0.23333333
-0.70285714 0.18857142 4.2857141 0.23333333
-0.64834118 0.25023696 5.6872034 0.17583334
-0.62559235 0.25023696 5.6872034 0.17583334
-0.13109243 0.22184873 5.0420165 0.19833334
0.017142856 0.18857142 4.2857141 0.23333333
0.1493776 0.21908714 4.9792533 0.20083332
0.32432431 0.203861 4.6332045 0.21583334
0.33359072 0.203861 4.6332045 0.21583334
0.51184833 0.25023696 5.6872034 0.17583334
0.5210526 0.17368421 3.9473684 0.25333333
0.56052631 0.17368421 3.9473684 0.25333333
0.83358777 0.20152672 4.5801525 0.21833333
0.84274805 0.20152672 4.5801525 0.21833333
-0.64834118 0.26161134 5.6872034 0.17583334
-0.63696676 0.26161134 5.6872034 0.17583334
-0.60284358 0.26161134 5.6872034 0.17583334
-0.14117646 0.23193276 5.0420165 0.19833334
-0.13109243 0.23193276 5.0420165 0.19833334
0.017142856 0.19714285 4.2857141 0.23333333
0.025714286 0.19714285 4.2857141 0.23333333
0.12946059 0.22904564 4.9792533 0.20083332
0.13941909 0.22904564 4.9792533 0.20083332
0.1493776 0.22904564 4.9792533 0.20083332
0.51184833 0.26161134 5.6872034 0.17583334
0.5210526 0.18157895 3.9473684 0.25333333
0.52894735 0.18157895 3.9473684 0.25333333
0.53684211 0.18157895 3.9473684 0.25333333
1.872 0.55199999 12 0.083333336
1.896 0.55199999 12 0.083333336
1.92 0.55199999 12 0.083333336
0.77111912 0.19927798 4.33213 0.23083334
0.78844768 0.19927798 4.33213 0.23083334
0.79711193 0.19927798 4.33213 0.23083334
-0.65667754 0.18762216 3.9087949 0.25583333
-0.64885998 0.18762216 3.9087949 0.25583333
-0.16134453 0.24201679 5.0420165 0.19833334
-0.1512605 0.24201679 5.0420165 0.19833334
-0.13109243 0.24201679 5.0420165 0.19833334
-0.11950208 0.23900416 4.9792533 0.20083332
0.017142856 0.20571429 4.2857141 0.23333333
0.051428571 0.20571429 4.2857141 0.23333333
0.12946059 0.23900416 4.9792533 0.20083332
0.13941909 0.23900416 4.9792533 0.20083332
0.1593361 0.23900416 4.9792533 0.20083332
0.3150579 0.22239381 4.6332045 0.21583334
0.32432431 0.22239381 4.6332045 0.21583334
0.51184833 0.27298576 5.6872034 0.17583334
0.5210526 0.18947369 3.9473684 0.25333333
0.52894735 0.18947369 3.9473684 0.25333333
1.896 0.57599998 12 0.083333336
0.9981308 0.26915887 5.6074762 0.17833334
1.0205606 0.26915887 5.6074762 0.17833334
1.0317756 0.26915887 5.6074762 0.17833334
-0.65667754 0.19543974 3.9087949 0.25583333
-0.64885998 0.19543974 3.9087949 0.25583333
-0.11950208 0.24896267 4.9792533 0.20083332
0.017142856 0.2142857 4.2857141 0.23333333
0.5210526 0.19736841 3.9473684 0.25333333
-0.65667754 0.20325734 3.9087949 0.25583333
-0.10954357 0.25892118 4.9792533 0.20083332
0.5210526 0.20526315 3.9473684 0.25333333
-0.65667754 0.21107492 3.9087949 0.25583333
-0.10954357 0.26887968 4.9792533 0.20083332
-0.099585064 0.26887968 4.9792533 0.20083332
0.5158878 0.30280373 5.6074762 0.17833334
0.51596093 0.21107492 3.9087949 0.25583333
0.97570086 0.30280373 5.6074762 0.17833334
0.9981308 0.30280373 5.6074762 0.17833334
-0.65667754 0.21889251 3.9087949 0.25583333
0.62400001 0.67199999 12 0.083333336
0.648 0.67199999 12 0.083333336
0.97570086 0.31401867 5.6074762 0.17833334
1.0093458 0.31401867 5.6074762 0.17833334
1.0317756 0.31401867 5.6074762 0.17833334
-0.65667754 0.2267101 3.9087949 0.25583333
-0.2451064 0.29617023 5.1063833 0.19583333
-0.23489363 0.29617023 5.1063833 0.19583333
-0.024489798 0.35510206 6.1224494 0.16333333
-0.012244899 0.35510206 6.1224494 0.16333333
0.5158878 0.32523361 5.6074762 0.17833334
0.5237785 0.2267101 3.9087949 0.25583333
0.9981308 0.32523361 5.6074762 0.17833334
1.0317756 0.32523361 5.6074762 0.17833334
-0.66449511 0.23452769 3.9087949 0.25583333
-0.2451064 0.30638301 5.1063833 0.19583333
-0.23489363 0.30638301 5.1063833 0.19583333
-0.012244899 0.36734697 6.1224494 0.16333333
0 0.36734697 6.1224494 0.16333333
0.50467288 0.33644858 5.6074762 0.17833334
0.5158878 0.33644858 5.6074762 0.17833334
0.62084937 0.27799228 4.6332045 0.21583334
-0.27574471 0.31659576 5.1063833 0.19583333
-0.23816793 0.28396946 4.5801525 0.21833333
-0.25531918 0.31659576 5.1063833 0.19583333
-0.2451064 0.31659576 5.1063833 0.19583333
0.012244899 0.37959185 6.1224494 0.16333333
0.47999999 0.74400002 12 0.083333336
0.792 0.74400002 12 0.083333336
0.54953265 0.34766352 5.6074762 0.17833334
0.62084937 0.28725868 4.6332045 0.21583334
0.63011581 0.28725868 4.6332045 0.21583334
-0.66449511 0.25016287 3.9087949 0.25583333
-0.76946563 0.29312977 4.5801525 0.21833333
-0.27574471 0.32680854 5.1063833 0.19583333
-0.23816793 0.29312977 4.5801525 0.21833333
-0.15219513 0.37463415 5.8536587 0.17083333
-0.14048781 0.37463415 5.8536587 0.17083333
-0.12878048 0.37463415 5.8536587 0.17083333
0.23999999 0.76800001 12 0.083333336
0.264 0.76800001 12 0.083333336
0.47999999 0.76800001 12 0.083333336
0.792 0.76800001 12 0.083333336
0.54953265 0.35887849 5.6074762 0.17833334
0.62068963 0.33103448 5.1724138 0.19333333
0.63103449 0.33103448 5.1724138 0.19333333
0.6413793 0.33103448 5.1724138 0.19333333
0.65172416 0.33103448 5.1724138 0.19333333
0.63011581 0.29652509 4.6332045 0.21583334
-0.78778625 0.30229005 4.5801525 0.21833333
-0.77862591 0.30229005 4.5801525 0.21833333
-0.38122743 0.28592059 4.33213 0.23083334
-0.37256318 0.28592059 4.33213 0.23083334
-0.35523465 0.28592059 4.33213 0.23083334
-0.25648853 0.30229005 4.5801525 0.21833333
-0.14048781 0.38634148 5.8536587 0.17083333
-0.12878048 0.38634148 5.8536587 0.17083333
0 0.792 12 0.083333336
0.23999999 0.792 12 0.083333336
0.264 0.792 12 0.083333336
0.28799999 0.792 12 0.083333336
0.47999999 0.792 12 0.083333336
0.792 0.792 12 0.083333336
0.6413793 0.34137931 5.1724138 0.19333333
0.65172416 0.34137931 5.1724138 0.19333333
-0.6413793 0.35172415 5.1724138 0.19333333
-0.38989168 0.29458484 4.33213 0.23083334
0 0.81599998 12 0.083333336
0.792 0.81599998 12 0.083333336
-0.62117648 0.24705882 3.5294118 0.28333333
-0.79694653 0.32061067 4.5801525 0.21833333
-0.39855596 0.30324909 4.33213 0.23083334
-0.12878048 0.40975609 5.8536587 0.17083333
-0.024 0.83999997 12 0.083333336
0 0.83999997 12 0.083333336
0.024 0.83999997 12 0.083333336
0.048 0.83999997 12 0.083333336
0.792 0.83999997 12 0.083333336
0.52894735 0.27631578 3.9473684 0.25333333
0.53684211 0.27631578 3.9473684 0.25333333
-0.27480915 0.32977098 4.5801525 0.21833333
-0.26564884 0.32977098 4.5801525 0.21833333
-0.25648853 0.32977098 4.5801525 0.21833333
-0.024 0.86400002 12 0.083333336
0.024 0.86400002 12 0.083333336
0.048 0.86400002 12 0.083333336
0.69599998 0.86400002 12 0.083333336
0.53684211 0.28421053 3.9473684 0.25333333
0.92068964 0.37241378 5.1724138 0.19333333
0.93103451 0.37241378 5.1724138 0.19333333
0.94137931 0.37241378 5.1724138 0.19333333
-0.64373177 0.25889212 3.4985423 0.28583333
-0.63673472 0.25889212 3.4985423 0.28583333
-0.83265311 0.45306125 6.1224494 0.16333333
-0.62068963 0.38275862 5.1724138 0.19333333
-0.095306858 0.32057762 4.33213 0.23083334
-0.086642601 0.32057762 4.33213 0.23083334
-0.077978343 0.32057762 4.33213 0.23083334
0.35142857 0.31714284 4.2857141 0.23333333
0.35999998 0.31714284 4.2857141 0.23333333
0.36857143 0.31714284 4.2857141 0.23333333
0.52894735 0.29210526 3.9473684 0.25333333
0.92068964 0.38275862 5.1724138 0.19333333
0.93103451 0.38275862 5.1724138 0.19333333
-0.64373177 0.26588923 3.4985423 0.28583333
-0.63673472 0.26588923 3.4985423 0.28583333
-0.85714293 0.46530616 6.1224494 0.16333333
-0.84489805 0.46530616 6.1224494 0.16333333
-0.62068963 0.39310345 5.1724138 0.19333333
-0.095306858 0.32924187 4.33213 0.23083334
-0.086642601 0.32924187 4.33213 0.23083334
-0.077978343 0.32924187 4.33213 0.23083334
-0.069314077 0.32924187 4.33213 0.23083334
-0.036641221 0.3480916 4.5801525 0.21833333
-0.027480915 0.3480916 4.5801525 0.21833333
0.34285712 0.32571429 4.2857141 0.23333333
0.36857143 0.32571429 4.2857141 0.23333333
1.464 0.912 12 0.083333336
0.53421926 0.30299005 3.986711 0.25083333
0.92068964 0.39310345 5.1724138 0.19333333
-0.64373177 0.27288631 3.4985423 0.28583333
-0.63673472 0.27288631 3.4985423 0.28583333
-0.85714293 0.47755104 6.1224494 0.16333333
-0.84489805 0.47755104 6.1224494 0.16333333
-0.095306858 0.33790612 4.33213 0.23083334
-0.045801524 0.35725188 4.5801525 0.21833333
0.35142857 0.33428571 4.2857141 0.23333333
0.49411762 0.39327729 5.0420165 0.19833334
1.4400001 0.93599999 12 0.083333336
0.61374044 0.35725188 4.5801525 0.21833333
-0.64373177 0.27988338 3.4985423 0.28583333
-0.63673472 0.27988338 3.4985423 0.28583333
-0.68246442 0.45497626 5.6872034 0.17583334
-0.086642601 0.3465704 4.33213 0.23083334
0.35999998 0.34285712 4.2857141 0.23333333
0.36857143 0.34285712 4.2857141 0.23333333
0.48403358 0.40336132 5.0420165 0.19833334
0.49411762 0.40336132 5.0420165 0.19833334
0.50420165 0.40336132 5.0420165 0.19833334
1.416 0.95999998 12 0.083333336
1.4400001 0.95999998 12 0.083333336
1.464 0.95999998 12 0.083333336
0.61374044 0.36641219 4.5801525 0.21833333
0.92068964 0.41379312 5.1724138 0.19333333
-0.64373177 0.28688046 3.4985423 0.28583333
-0.63673472 0.28688046 3.4985423 0.28583333
-0.67109001 0.46635067 5.6872034 0.17583334
-0.086642601 0.35523465 4.33213 0.23083334
-0.082442746 0.3755725 4.5801525 0.21833333
0.35999998 0.35142857 4.2857141 0.23333333
0.36857143 0.35142857 4.2857141 0.23333333
0.48403358 0.41344535 5.0420165 0.19833334
0.49411762 0.41344535 5.0420165 0.19833334
0.6045801 0.3755725 4.5801525 0.21833333
0.61374044 0.3755725 4.5801525 0.21833333
-0.54857141 0.35999998 4.2857141 0.23333333
-0.67109001 0.47772509 5.6872034 0.17583334
-0.65971559 0.47772509 5.6872034 0.17583334
-0.23793104 0.43448275 5.1724138 0.19333333
-0.21724138 0.43448275 5.1724138 0.19333333
-0.20689656 0.43448275 5.1724138 0.19333333
-0.074611396 0.5222798 6.2176166 0.16083333
-0.045801524 0.38473281 4.5801525 0.21833333
-0.72796202 0.4890995 5.6872034 0.17583334
-0.65971559 0.4890995 5.6872034 0.17583334
-0.23793104 0.44482759 5.1724138 0.19333333
-0.22758621 0.44482759 5.1724138 0.19333333
-0.21724138 0.44482759 5.1724138 0.19333333
-0.082442746 0.39389312 4.5801525 0.21833333
-0.073282443 0.39389312 4.5801525 0.21833333
-0.062176164 0.534715 6.2176166 0.16083333
0.12 1.0319999 12 0.083333336
0.24896267 0.42821577 4.9792533 0.20083332
0.25892118 0.42821577 4.9792533 0.20083332
1.035071 0.4890995 5.6872034 0.17583334
-0.72796202 0.50047392 5.6872034 0.17583334
-0.52285713 0.37714285 4.2857141 0.23333333
-0.68246442 0.50047392 5.6872034 0.17583334
-0.22758621 0.45517242 5.1724138 0.19333333
-0.21724138 0.45517242 5.1724138 0.19333333
0.14399999 1.056 12 0.083333336
0.23900416 0.43817428 4.9792533 0.20083332
0.24896267 0.43817428 4.9792533 0.20083332
0.25892118 0.43817428 4.9792533 0.20083332
0.59305018 0.407722 4.6332045 0.21583334
1.035071 0.50047392 5.6872034 0.17583334
1.0464454 0.50047392 5.6872034 0.17583334
-0.55714285 0.38571426 4.2857141 0.23333333
-0.54857141 0.38571426 4.2857141 0.23333333
-0.53999996 0.38571426 4.2857141 0.23333333
-0.22758621 0.46551725 5.1724138 0.19333333
0.25892118 0.44813278 4.9792533 0.20083332
1.0319999 1.08 12 0.083333336
1.056 1.08 12 0.083333336
1.08 1.08 12 0.083333336
0.57451737 0.4169884 4.6332045 0.21583334
0.58378375 0.4169884 4.6332045 0.21583334
0.59305018 0.4169884 4.6332045 0.21583334
1.035071 0.51184833 5.6872034 0.17583334
1.0464454 0.51184833 5.6872034 0.17583334
-0.55714285 0.39428571 4.2857141 0.23333333
-0.53999996 0.39428571 4.2857141 0.23333333
-0.22468087 0.46978727 5.1063833 0.19583333
0.25892118 0.45809129 4.9792533 0.20083332
-0.88965517 0.48620689 5.1724138 0.19333333
-0.67581224 0.40722021 4.33213 0.23083334
-0.65848374 0.40722021 4.33213 0.23083334
-0.23489363 0.48000002 5.1063833 0.19583333
-0.22468087 0.48000002 5.1063833 0.19583333
-0.0078175897 0.36742672 3.9087949 0.25583333
-0.82655603 0.47800833 4.9792533 0.20083332
-0.65848374 0.41588446 4.33213 0.23083334
-0.64981949 0.41588446 4.33213 0.23083334
-0.64115524 0.41588446 4.33213 0.23083334
-0.63249099 0.41588446 4.33213 0.23083334
-0.88965517 0.50689656 5.1724138 0.19333333
-0.83651453 0.48796684 4.9792533 0.20083332
-0.8586207 0.50689656 5.1724138 0.19333333
-0.81659752 0.48796684 4.9792533 0.20083332
-1.632 1.176 12 0.083333336
-1.608 1.176 12 0.083333336
-0.55148941 0.50042558 5.1063833 0.19583333
-0.47258684 0.45405403 4.6332045 0.21583334
-0.2451064 0.50042558 5.1063833 0.19583333
-0.0078175897 0.38306189 3.9087949 0.25583333
0 0.38306189 3.9087949 0.25583333
0.52851987 0.42454875 4.33213 0.23083334
-0.88965517 0.51724136 5.1724138 0.19333333
-1.632 1.2 12 0.083333336
-1.608 1.2 12 0.083333336
-0.55148941 0.51063836 5.1063833 0.19583333
-0.47258684 0.46332043 4.6332045 0.21583334
